ncols        313
nrows        61
xllcorner    931885.8678
yllcorner    3083132.6043
cellsize     30.000000000000
NODATA_value -32767
2309 2323 2333 2332 2312 2282 2277 2277 2295 2289 2279 2318 2308 2307 2307 2290 2276 2285 2300 2346 2377 2410 2453 2488 2501 2506 2531 2557 2572 2586 2621 2621 2617 2600 2573 2543 2516 2504 2476 2458 2433 2369 2346 2327 2308 2279 2253 2229 2216 2228 2248 2238 2220 2205 2188 2170 2157 2147 2142 2138 2131 2133 2141 2147 2151 2157 2153 2153 2162 2153 2159 2151 2145 2126 2112 2097 2083 2066 2049 2032 2017 2006 1987 1965 1919 1898 1879 1873 1901 1906 1910 1914 1906 1912 1897 1876 1886 1880 1898 1897 1895 1893 1893 1882 1864 1841 1861 1882 1877 1883 1896 1915 1932 1944 1964 1980 1995 1992 1983 1967 1955 1948 1946 1928 1917 1930 1960 1978 1990 2003 2016 2023 2028 2032 2039 2048 2055 2072 2080 2087 2099 2113 2132 2151 2169 2183 2198 2212 2237 2252 2261 2251 2235 2264 2262 2243 2221 2205 2207 2224 2228 2218 2205 2183 2176 2192 2188 2166 2139 2116 2104 2107 2109 2105 2092 2078 2063 2039 2021 2040 2114 2136 2154 2170 2177 2188 2205 2210 2198 2177 2158 2125 2149 2164 2183 2163 2141 2125 2133 2150 2150 2146 2162 2168 2156 2175 2193 2206 2217 2235 2241 2255 2274 2288 2299 2307 2314 2309 2300 2303 2295 2285 2281 2271 2266 2275 2285 2283 2278 2274 2266 2260 2254 2252 2225 2213 2212 2201 2181 2162 2149 2136 2119 2110 2059 2041 2022 2007 1990 1974 1954 1937 1923 1905 1894 1873 1855 1829 1817 1804 1792 1795 1782 1765 1749 1721 1681 1662 1654 1651 1649 1656 1655 1658 1668 1679 1682 1661 1653 1648 1638 1625 1617 1605 1599 1585 1578 1556 1547 1540 1541 1541 1531 1520 1529 1517 1514 1509 1498 1489 1482 1462 1444 1440 1447 1446 1435 1438 1436 1411 1413 1427 1427
2339 2355 2356 2351 2340 2322 2311 2317 2326 2324 2326 2318 2345 2341 2341 2326 2306 2313 2327 2366 2410 2442 2476 2512 2537 2533 2531 2557 2582 2600 2622 2615 2616 2608 2581 2553 2535 2511 2487 2458 2440 2384 2354 2337 2312 2292 2270 2243 2236 2263 2277 2266 2237 2219 2200 2191 2174 2175 2169 2168 2163 2163 2155 2166 2168 2172 2170 2171 2183 2177 2174 2164 2158 2137 2126 2111 2100 2080 2056 2044 2036 2029 2015 1986 1928 1905 1894 1899 1924 1938 1934 1935 1932 1928 1926 1898 1886 1891 1911 1915 1909 1901 1897 1886 1872 1858 1881 1903 1903 1894 1903 1914 1928 1942 1963 1981 2002 2007 2000 1989 1976 1965 1957 1939 1917 1940 1943 1985 1996 2010 2024 2032 2039 2045 2052 2056 2064 2073 2087 2093 2102 2118 2140 2155 2167 2181 2199 2214 2240 2252 2267 2268 2263 2282 2274 2250 2232 2223 2228 2247 2244 2233 2220 2200 2193 2197 2192 2169 2162 2142 2123 2122 2112 2101 2088 2069 2057 2037 2046 2071 2126 2136 2145 2167 2183 2197 2216 2211 2191 2170 2155 2148 2156 2184 2195 2174 2156 2141 2159 2184 2176 2177 2159 2187 2175 2175 2196 2211 2220 2235 2246 2260 2271 2294 2309 2313 2309 2299 2294 2303 2303 2294 2291 2276 2263 2271 2283 2277 2270 2268 2263 2257 2253 2245 2225 2221 2213 2198 2192 2179 2166 2145 2135 2123 2092 2059 2040 2024 2008 1989 1970 1951 1934 1915 1890 1873 1855 1842 1813 1791 1782 1769 1766 1751 1732 1709 1681 1687 1687 1685 1677 1682 1677 1684 1689 1688 1691 1679 1672 1657 1646 1631 1623 1615 1606 1596 1588 1573 1555 1552 1553 1550 1540 1533 1529 1530 1518 1509 1491 1479 1456 1446 1455 1465 1469 1468 1457 1454 1447 1432 1436 1440 1446
2375 2388 2387 2377 2360 2335 2328 2339 2363 2362 2363 2356 2345 2372 2367 2349 2321 2332 2357 2392 2444 2472 2500 2529 2553 2561 2553 2559 2584 2603 2628 2629 2611 2603 2586 2568 2545 2528 2503 2471 2440 2428 2368 2347 2320 2295 2277 2258 2254 2280 2286 2278 2245 2224 2214 2216 2208 2198 2193 2195 2184 2177 2181 2181 2192 2205 2200 2190 2183 2195 2190 2185 2174 2166 2137 2122 2106 2083 2064 2054 2045 2036 2023 1998 1932 1919 1912 1916 1930 1949 1952 1951 1956 1954 1947 1913 1891 1891 1919 1929 1928 1918 1903 1887 1869 1850 1889 1906 1910 1904 1913 1928 1939 1950 1960 1977 1993 2015 2014 2007 1994 1981 1968 1958 1949 1940 1969 1986 2007 2021 2030 2038 2046 2054 2064 2074 2083 2086 2098 2106 2115 2129 2147 2166 2181 2191 2206 2215 2223 2260 2274 2282 2286 2282 2270 2255 2249 2244 2247 2262 2258 2250 2236 2215 2207 2199 2192 2188 2180 2155 2136 2125 2114 2100 2089 2076 2065 2065 2077 2096 2110 2123 2145 2169 2183 2215 2229 2220 2194 2170 2181 2194 2175 2200 2211 2198 2179 2159 2175 2197 2195 2198 2184 2192 2198 2188 2193 2210 2221 2234 2246 2262 2274 2304 2313 2315 2309 2311 2301 2286 2290 2298 2287 2281 2255 2262 2271 2265 2261 2261 2257 2248 2243 2235 2224 2207 2203 2198 2192 2192 2179 2164 2145 2125 2110 2075 2060 2042 2024 2004 1982 1960 1947 1929 1907 1889 1863 1846 1815 1788 1760 1750 1754 1742 1722 1705 1679 1687 1709 1708 1703 1701 1694 1696 1694 1696 1702 1700 1691 1673 1655 1641 1631 1624 1615 1603 1586 1579 1567 1562 1561 1557 1554 1548 1543 1530 1516 1501 1490 1460 1468 1481 1487 1487 1488 1484 1479 1474 1460 1455 1443 1449 1455
2415 2421 2416 2394 2366 2345 2337 2350 2372 2388 2399 2390 2385 2394 2373 2370 2369 2369 2384 2430 2471 2484 2509 2542 2573 2587 2577 2569 2581 2606 2631 2629 2618 2605 2582 2564 2544 2537 2504 2478 2462 2428 2382 2356 2332 2313 2298 2284 2295 2296 2294 2283 2267 2239 2235 2231 2226 2220 2210 2210 2206 2197 2195 2199 2212 2214 2211 2208 2202 2195 2208 2194 2191 2175 2148 2133 2113 2089 2076 2064 2043 2030 2018 1994 1965 1942 1941 1943 1945 1965 1971 1973 1974 1970 1961 1942 1918 1911 1932 1941 1946 1932 1907 1887 1865 1871 1881 1902 1920 1923 1924 1934 1951 1960 1972 1983 1996 2016 2023 2022 2013 1998 1986 1977 1973 1972 1969 1970 2000 2024 2039 2051 2059 2067 2078 2090 2097 2100 2112 2122 2129 2137 2154 2166 2185 2194 2203 2220 2227 2262 2278 2291 2303 2292 2270 2272 2268 2265 2273 2281 2275 2263 2244 2229 2222 2208 2198 2200 2187 2170 2160 2135 2121 2116 2101 2085 2082 2102 2123 2124 2133 2133 2153 2176 2211 2226 2236 2223 2197 2179 2203 2215 2204 2236 2230 2211 2189 2183 2195 2207 2221 2223 2216 2205 2213 2209 2208 2217 2228 2240 2249 2262 2275 2289 2313 2308 2308 2309 2298 2291 2281 2289 2285 2286 2255 2253 2258 2259 2255 2249 2247 2247 2238 2229 2221 2214 2201 2188 2195 2192 2189 2183 2161 2138 2120 2100 2071 2054 2031 2015 1997 1972 1954 1936 1914 1894 1860 1840 1816 1792 1771 1749 1731 1722 1706 1693 1698 1711 1730 1727 1720 1714 1707 1701 1703 1714 1717 1716 1709 1697 1683 1662 1646 1634 1619 1601 1592 1594 1592 1580 1579 1577 1573 1563 1548 1531 1516 1499 1495 1473 1490 1508 1512 1509 1504 1497 1496 1492 1483 1475 1456 1462 1481
2451 2446 2426 2398 2375 2364 2354 2365 2380 2402 2423 2418 2406 2394 2411 2415 2416 2406 2468 2445 2469 2503 2524 2562 2588 2602 2602 2587 2587 2613 2626 2637 2602 2591 2583 2560 2544 2535 2519 2495 2465 2438 2397 2366 2343 2320 2310 2319 2330 2325 2306 2283 2265 2252 2244 2249 2249 2245 2233 2220 2212 2212 2209 2209 2228 2229 2222 2218 2213 2211 2208 2204 2197 2187 2170 2144 2123 2098 2082 2063 2045 2026 2011 1985 1970 1973 1972 1987 1980 1985 1993 1993 1992 1989 1973 1952 1946 1931 1932 1953 1951 1928 1908 1885 1873 1879 1876 1893 1924 1944 1937 1944 1960 1968 1981 1991 1999 2017 2021 2030 2025 2015 2010 2002 1996 2002 1989 1988 1997 2017 2035 2051 2072 2083 2093 2105 2107 2116 2126 2140 2151 2160 2163 2172 2182 2190 2202 2219 2235 2249 2277 2278 2298 2297 2285 2272 2287 2290 2293 2299 2291 2277 2261 2250 2238 2223 2212 2206 2193 2186 2174 2149 2144 2132 2112 2105 2092 2117 2134 2151 2159 2157 2164 2176 2219 2230 2238 2223 2200 2201 2225 2240 2239 2246 2235 2220 2213 2231 2231 2217 2237 2242 2238 2225 2219 2232 2238 2236 2230 2237 2253 2262 2274 2287 2311 2302 2304 2301 2295 2294 2275 2281 2282 2286 2270 2244 2238 2242 2239 2243 2238 2251 2242 2230 2221 2212 2197 2188 2187 2194 2189 2179 2168 2139 2123 2105 2068 2055 2046 2029 2002 1976 1957 1931 1911 1890 1869 1834 1819 1794 1776 1754 1726 1711 1704 1709 1726 1731 1730 1738 1732 1724 1718 1714 1719 1726 1726 1724 1715 1708 1699 1686 1662 1645 1627 1613 1607 1606 1609 1601 1597 1590 1580 1567 1552 1538 1521 1512 1510 1502 1512 1526 1530 1524 1519 1521 1518 1511 1500 1491 1485 1491 1503
2469 2451 2429 2405 2393 2380 2367 2374 2399 2410 2428 2457 2434 2423 2411 2493 2475 2476 2504 2448 2466 2522 2535 2559 2587 2608 2613 2602 2611 2618 2632 2629 2598 2585 2575 2561 2551 2525 2514 2497 2471 2448 2422 2375 2353 2332 2341 2351 2349 2334 2314 2286 2274 2271 2258 2261 2253 2247 2241 2228 2230 2221 2221 2221 2228 2228 2229 2230 2224 2220 2213 2204 2202 2189 2180 2145 2128 2103 2082 2065 2054 2039 2012 1994 2011 2013 1993 1999 2000 2006 2015 2012 2007 2003 1982 1962 1969 1959 1950 1953 1947 1933 1915 1900 1885 1886 1896 1898 1928 1955 1956 1948 1962 1975 1990 1997 2004 2009 2023 2035 2038 2032 2031 2021 2018 2018 2006 1988 2012 2023 2035 2046 2069 2085 2104 2118 2125 2134 2141 2158 2172 2185 2187 2182 2189 2201 2212 2232 2241 2259 2286 2306 2315 2308 2297 2290 2287 2320 2328 2334 2323 2288 2273 2268 2255 2239 2226 2218 2213 2206 2197 2182 2166 2145 2134 2124 2107 2125 2145 2159 2182 2194 2196 2204 2219 2237 2239 2222 2215 2227 2254 2268 2259 2270 2254 2238 2231 2241 2241 2232 2250 2261 2264 2259 2238 2254 2256 2255 2254 2247 2246 2263 2274 2293 2312 2298 2299 2298 2285 2295 2280 2270 2281 2278 2264 2247 2240 2235 2230 2226 2232 2247 2240 2234 2221 2210 2194 2183 2177 2183 2184 2179 2161 2138 2122 2111 2094 2053 2040 2024 2005 1979 1955 1932 1912 1895 1873 1838 1820 1798 1775 1761 1740 1737 1745 1737 1738 1740 1743 1738 1744 1745 1746 1740 1734 1736 1737 1731 1725 1707 1698 1686 1670 1649 1641 1633 1627 1624 1624 1609 1605 1600 1585 1566 1550 1535 1513 1512 1522 1523 1539 1547 1544 1539 1533 1535 1537 1528 1518 1511 1509 1511 1520
2475 2454 2438 2428 2416 2394 2379 2379 2403 2420 2440 2466 2471 2473 2462 2493 2530 2516 2503 2476 2491 2515 2543 2564 2602 2622 2630 2620 2632 2644 2640 2629 2590 2578 2566 2555 2543 2520 2499 2491 2479 2451 2427 2375 2356 2350 2367 2365 2355 2337 2316 2301 2291 2283 2266 2276 2264 2255 2254 2241 2246 2244 2240 2231 2231 2230 2230 2230 2228 2226 2221 2209 2202 2191 2185 2156 2133 2110 2094 2072 2059 2040 2023 2014 2034 2040 2026 2024 2025 2027 2039 2031 2026 2014 1994 1983 1985 1983 1973 1962 1947 1948 1930 1909 1893 1897 1907 1895 1937 1963 1976 1962 1976 1989 1995 1999 2006 2014 2035 2044 2056 2053 2048 2039 2034 2021 2006 2008 2012 2041 2044 2055 2081 2094 2105 2128 2137 2149 2157 2164 2188 2203 2208 2211 2215 2217 2222 2244 2256 2271 2306 2315 2323 2316 2309 2307 2310 2343 2350 2348 2338 2309 2298 2288 2275 2254 2241 2232 2235 2226 2219 2210 2182 2154 2152 2139 2129 2140 2153 2173 2198 2211 2202 2222 2228 2237 2243 2230 2249 2252 2257 2268 2265 2289 2274 2257 2262 2270 2263 2251 2259 2275 2277 2275 2260 2266 2274 2273 2268 2259 2257 2274 2285 2293 2310 2294 2282 2282 2280 2282 2275 2266 2286 2281 2263 2262 2253 2249 2242 2229 2225 2229 2225 2225 2216 2207 2192 2179 2170 2175 2172 2165 2149 2135 2114 2099 2082 2057 2049 2026 2005 1979 1956 1934 1914 1893 1874 1849 1814 1791 1772 1757 1758 1773 1771 1755 1749 1757 1762 1756 1744 1765 1764 1757 1749 1746 1744 1737 1725 1700 1691 1684 1683 1668 1659 1655 1646 1640 1628 1614 1601 1592 1583 1566 1551 1531 1512 1521 1522 1531 1546 1558 1558 1560 1555 1552 1550 1544 1536 1531 1533 1540 1546
2508 2480 2468 2452 2428 2412 2392 2388 2396 2418 2451 2477 2490 2493 2496 2535 2530 2533 2512 2511 2533 2554 2567 2575 2605 2626 2639 2637 2644 2653 2648 2634 2618 2582 2571 2562 2545 2528 2503 2478 2459 2447 2429 2411 2356 2391 2392 2378 2360 2347 2330 2314 2312 2303 2280 2279 2283 2275 2268 2255 2256 2255 2256 2251 2244 2249 2253 2249 2240 2233 2223 2215 2202 2194 2186 2175 2145 2120 2098 2068 2055 2041 2034 2031 2052 2078 2076 2059 2059 2054 2065 2055 2042 2026 2013 2009 1999 2007 1996 1981 1966 1948 1932 1914 1910 1917 1915 1896 1949 1973 1990 1982 1980 1994 1999 2003 2012 2017 2031 2058 2077 2073 2063 2053 2040 2029 2019 2035 2033 2041 2057 2077 2097 2114 2119 2130 2138 2150 2169 2181 2199 2214 2225 2226 2233 2240 2240 2261 2268 2287 2306 2328 2333 2323 2325 2326 2327 2343 2370 2355 2342 2336 2317 2304 2286 2267 2262 2257 2248 2242 2241 2232 2190 2180 2181 2164 2150 2150 2162 2200 2207 2219 2223 2238 2245 2250 2243 2246 2266 2270 2269 2282 2284 2297 2291 2281 2281 2292 2291 2274 2276 2287 2295 2285 2282 2283 2290 2285 2276 2267 2272 2282 2291 2301 2310 2299 2292 2279 2269 2265 2262 2268 2277 2280 2275 2275 2256 2246 2232 2224 2214 2209 2204 2207 2205 2197 2187 2173 2161 2162 2157 2156 2149 2136 2107 2103 2091 2066 2048 2022 1995 1976 1952 1929 1903 1882 1872 1847 1802 1785 1769 1769 1780 1786 1778 1768 1772 1773 1776 1766 1761 1765 1770 1762 1757 1751 1746 1740 1726 1708 1695 1692 1691 1684 1671 1665 1651 1638 1626 1612 1588 1573 1566 1557 1547 1520 1516 1532 1534 1531 1558 1575 1576 1579 1574 1567 1564 1557 1547 1545 1551 1561 1569
2524 2509 2501 2474 2449 2426 2407 2398 2402 2424 2457 2480 2517 2513 2517 2540 2545 2536 2520 2533 2556 2563 2585 2609 2615 2633 2646 2652 2643 2658 2656 2640 2632 2598 2589 2573 2558 2540 2523 2497 2469 2450 2432 2410 2376 2391 2403 2387 2375 2364 2354 2340 2329 2325 2312 2289 2299 2295 2291 2277 2276 2270 2266 2263 2260 2268 2267 2260 2247 2240 2227 2219 2204 2194 2188 2177 2143 2127 2115 2089 2083 2061 2049 2056 2077 2106 2119 2095 2082 2077 2082 2074 2063 2048 2035 2021 2019 2030 2016 2006 1985 1957 1942 1923 1934 1937 1922 1907 1951 1975 1999 2005 1995 2001 2014 2015 2019 2029 2043 2074 2092 2092 2080 2064 2051 2036 2045 2054 2051 2048 2057 2098 2107 2123 2138 2146 2143 2145 2168 2184 2199 2224 2233 2238 2244 2250 2253 2267 2280 2292 2311 2330 2339 2344 2337 2337 2343 2366 2370 2369 2354 2348 2333 2315 2300 2296 2283 2271 2255 2264 2260 2248 2231 2202 2205 2184 2162 2188 2192 2203 2215 2229 2246 2253 2264 2264 2252 2273 2289 2292 2288 2310 2303 2313 2314 2306 2304 2317 2308 2296 2295 2304 2304 2293 2310 2306 2302 2295 2281 2282 2289 2298 2299 2311 2316 2308 2295 2283 2270 2254 2268 2279 2270 2270 2274 2271 2256 2241 2241 2235 2226 2223 2211 2198 2195 2192 2184 2162 2153 2153 2149 2146 2146 2136 2087 2071 2067 2073 2035 2016 1997 1970 1948 1936 1918 1908 1889 1868 1841 1817 1805 1802 1802 1802 1786 1788 1790 1793 1801 1776 1775 1776 1773 1768 1760 1754 1746 1735 1716 1707 1705 1702 1699 1693 1680 1664 1650 1641 1629 1613 1607 1579 1553 1539 1528 1527 1536 1543 1550 1542 1558 1586 1590 1593 1589 1578 1578 1572 1568 1570 1576 1578 1584
2539 2543 2510 2490 2450 2427 2415 2399 2415 2443 2468 2494 2538 2561 2577 2572 2558 2536 2539 2550 2575 2576 2596 2623 2627 2642 2641 2650 2645 2651 2650 2641 2635 2622 2590 2575 2566 2546 2523 2505 2483 2465 2435 2407 2408 2413 2410 2411 2405 2389 2382 2362 2346 2336 2331 2314 2314 2314 2315 2296 2290 2293 2292 2281 2279 2279 2281 2274 2258 2241 2229 2224 2212 2199 2188 2178 2165 2143 2143 2129 2107 2082 2082 2105 2131 2155 2166 2153 2135 2125 2116 2112 2097 2079 2058 2038 2040 2048 2035 2021 1997 1969 1942 1942 1958 1957 1941 1927 1924 1983 2005 2019 2018 2013 2023 2026 2032 2055 2064 2078 2108 2106 2094 2076 2054 2049 2066 2070 2073 2071 2086 2132 2127 2131 2147 2152 2160 2167 2174 2190 2215 2233 2240 2241 2247 2253 2266 2273 2287 2301 2315 2327 2340 2353 2356 2359 2369 2391 2387 2369 2370 2362 2345 2331 2329 2319 2304 2282 2269 2286 2281 2264 2243 2229 2218 2194 2182 2205 2214 2229 2239 2247 2260 2267 2281 2275 2262 2273 2309 2315 2307 2327 2321 2327 2347 2331 2326 2329 2319 2304 2309 2316 2308 2304 2321 2325 2322 2314 2296 2301 2304 2307 2308 2312 2305 2302 2283 2279 2263 2251 2270 2275 2274 2260 2257 2256 2259 2249 2249 2243 2236 2233 2223 2213 2209 2201 2185 2173 2150 2146 2141 2118 2111 2108 2087 2088 2076 2063 2042 2018 1986 1976 1964 1948 1930 1909 1888 1863 1854 1837 1835 1829 1826 1817 1801 1808 1811 1813 1806 1797 1789 1782 1773 1770 1760 1754 1741 1732 1719 1719 1719 1716 1708 1701 1690 1674 1654 1643 1632 1619 1607 1575 1546 1544 1558 1563 1556 1559 1563 1555 1567 1588 1602 1602 1602 1594 1595 1593 1590 1588 1592 1592 1591
2550 2538 2499 2476 2460 2443 2422 2425 2448 2466 2492 2518 2535 2579 2596 2586 2572 2550 2539 2562 2580 2592 2618 2632 2643 2644 2634 2633 2647 2646 2641 2632 2628 2623 2595 2579 2559 2539 2525 2500 2479 2461 2441 2410 2412 2426 2410 2448 2434 2429 2415 2389 2372 2379 2373 2353 2327 2325 2321 2316 2313 2310 2309 2303 2294 2296 2295 2281 2271 2265 2237 2231 2224 2208 2192 2178 2174 2169 2155 2133 2115 2105 2115 2148 2186 2205 2202 2197 2192 2175 2153 2132 2116 2094 2071 2052 2070 2068 2058 2030 2010 1985 1958 1942 1975 1981 1965 1946 1933 1972 1998 2021 2032 2030 2034 2037 2053 2067 2080 2103 2121 2117 2105 2087 2071 2063 2077 2090 2098 2106 2115 2132 2146 2136 2147 2159 2177 2187 2189 2187 2215 2231 2235 2243 2250 2258 2270 2284 2294 2306 2320 2327 2344 2350 2366 2375 2396 2406 2401 2381 2370 2378 2367 2347 2342 2334 2319 2295 2297 2303 2293 2274 2252 2251 2238 2210 2200 2215 2230 2247 2257 2259 2273 2284 2287 2276 2273 2293 2309 2338 2325 2337 2346 2343 2366 2354 2347 2353 2341 2330 2341 2334 2325 2323 2324 2338 2337 2324 2309 2313 2310 2309 2307 2312 2306 2296 2283 2267 2259 2247 2253 2262 2262 2259 2261 2258 2247 2244 2246 2249 2245 2238 2228 2219 2212 2201 2185 2176 2154 2142 2128 2104 2103 2098 2090 2088 2091 2072 2050 2041 2017 1988 1968 1952 1931 1908 1890 1881 1884 1864 1864 1852 1843 1831 1822 1828 1833 1830 1818 1809 1799 1787 1778 1770 1770 1763 1755 1744 1737 1740 1738 1729 1716 1705 1696 1679 1659 1644 1627 1613 1595 1579 1559 1563 1573 1578 1578 1586 1580 1564 1562 1588 1614 1615 1611 1611 1609 1609 1608 1613 1614 1610 1607
2551 2540 2510 2491 2470 2451 2438 2423 2451 2487 2511 2534 2564 2587 2609 2610 2591 2570 2556 2562 2588 2607 2627 2630 2650 2648 2647 2632 2625 2632 2635 2630 2624 2619 2603 2583 2567 2548 2529 2520 2496 2471 2450 2441 2454 2452 2450 2448 2464 2446 2420 2404 2397 2400 2388 2369 2339 2341 2341 2337 2326 2328 2325 2318 2312 2315 2309 2290 2285 2269 2249 2240 2236 2223 2206 2193 2204 2187 2177 2158 2134 2130 2149 2183 2212 2226 2232 2223 2201 2182 2166 2143 2119 2096 2081 2091 2092 2084 2069 2037 2017 1990 1967 1957 1975 2000 1981 1970 1960 1947 1994 2020 2037 2047 2048 2058 2072 2083 2103 2124 2135 2127 2112 2100 2084 2082 2096 2109 2116 2123 2133 2147 2146 2147 2152 2169 2187 2200 2207 2206 2216 2225 2244 2248 2254 2263 2276 2285 2294 2306 2318 2325 2332 2360 2375 2398 2414 2426 2420 2405 2394 2405 2384 2367 2351 2333 2313 2313 2322 2319 2309 2287 2274 2276 2248 2222 2219 2227 2239 2262 2277 2278 2283 2292 2298 2289 2295 2314 2327 2338 2343 2346 2359 2362 2378 2363 2362 2360 2344 2345 2358 2355 2344 2348 2343 2343 2337 2325 2324 2323 2319 2315 2305 2297 2294 2291 2276 2267 2256 2248 2243 2259 2264 2260 2251 2247 2241 2236 2242 2245 2246 2245 2236 2219 2208 2199 2196 2188 2167 2150 2135 2127 2128 2123 2109 2104 2106 2085 2075 2047 2032 2000 1973 1959 1944 1922 1908 1913 1903 1903 1912 1898 1888 1867 1845 1854 1856 1847 1834 1827 1820 1797 1787 1778 1770 1779 1773 1763 1758 1755 1747 1730 1717 1702 1691 1675 1658 1641 1620 1608 1595 1574 1573 1575 1586 1595 1599 1598 1583 1588 1589 1595 1608 1625 1621 1622 1623 1625 1627 1627 1630 1626 1620
2554 2557 2540 2499 2483 2467 2457 2457 2469 2495 2522 2543 2567 2582 2622 2624 2609 2586 2575 2583 2611 2608 2625 2633 2644 2633 2639 2636 2619 2616 2623 2619 2606 2609 2595 2574 2561 2553 2536 2513 2498 2482 2477 2478 2483 2492 2505 2489 2464 2449 2440 2426 2419 2420 2413 2402 2361 2367 2361 2358 2358 2354 2345 2343 2338 2333 2325 2309 2297 2280 2273 2263 2256 2249 2232 2212 2204 2232 2202 2177 2164 2167 2183 2208 2222 2233 2241 2237 2226 2197 2179 2151 2127 2104 2104 2114 2108 2097 2081 2045 2019 1990 1974 1979 2000 2018 2011 2004 1984 1964 1991 2018 2042 2058 2065 2075 2087 2106 2118 2131 2139 2135 2123 2112 2093 2098 2117 2125 2135 2142 2148 2153 2157 2147 2177 2183 2196 2205 2215 2223 2223 2224 2250 2256 2260 2270 2278 2288 2296 2306 2316 2330 2344 2368 2384 2410 2442 2451 2443 2436 2420 2405 2407 2394 2365 2342 2329 2333 2334 2327 2319 2305 2294 2295 2260 2244 2245 2258 2259 2276 2288 2298 2301 2306 2308 2300 2316 2322 2341 2354 2354 2364 2372 2382 2390 2383 2379 2366 2356 2363 2375 2367 2361 2364 2360 2355 2356 2338 2338 2333 2329 2329 2318 2303 2286 2278 2277 2267 2256 2259 2247 2256 2256 2247 2240 2234 2240 2236 2239 2242 2242 2242 2239 2227 2218 2210 2201 2191 2182 2157 2147 2141 2137 2133 2124 2117 2106 2105 2086 2068 2039 2012 1986 1972 1953 1935 1944 1936 1923 1930 1934 1925 1910 1888 1871 1871 1869 1859 1850 1846 1836 1811 1802 1790 1781 1800 1791 1785 1778 1771 1759 1749 1714 1699 1684 1667 1658 1645 1634 1615 1597 1574 1596 1592 1599 1603 1607 1606 1601 1604 1598 1599 1612 1625 1636 1633 1637 1640 1639 1638 1641 1642 1635
2560 2563 2539 2521 2509 2498 2484 2465 2478 2505 2533 2556 2575 2594 2639 2644 2632 2611 2596 2605 2611 2622 2627 2628 2644 2628 2622 2628 2619 2609 2617 2613 2598 2593 2584 2569 2553 2551 2539 2506 2502 2509 2512 2508 2519 2529 2514 2494 2475 2449 2456 2436 2441 2452 2451 2444 2421 2387 2387 2389 2388 2378 2371 2366 2364 2358 2347 2337 2324 2312 2315 2312 2306 2287 2267 2249 2239 2232 2219 2193 2182 2197 2205 2216 2235 2243 2248 2238 2231 2214 2204 2171 2150 2133 2147 2144 2129 2109 2087 2064 2019 1995 1995 2016 2023 2018 2042 2026 1999 1989 1975 2018 2041 2061 2075 2086 2097 2113 2124 2135 2142 2140 2128 2114 2099 2112 2125 2135 2147 2152 2156 2161 2174 2160 2177 2199 2207 2216 2225 2233 2238 2229 2240 2265 2274 2281 2287 2294 2298 2308 2321 2332 2342 2371 2397 2409 2432 2450 2456 2454 2438 2422 2407 2411 2378 2362 2344 2344 2340 2337 2327 2317 2310 2307 2291 2258 2263 2271 2278 2297 2305 2315 2319 2319 2321 2313 2335 2346 2349 2365 2354 2377 2387 2394 2393 2388 2388 2378 2373 2378 2381 2377 2375 2372 2371 2365 2356 2347 2351 2344 2331 2337 2325 2312 2294 2293 2293 2284 2268 2259 2250 2251 2254 2249 2234 2221 2231 2227 2217 2228 2239 2229 2223 2222 2221 2214 2196 2184 2177 2167 2160 2151 2147 2142 2133 2125 2116 2105 2093 2080 2047 2027 2005 1987 1965 1953 1964 1960 1953 1958 1952 1938 1921 1902 1886 1889 1885 1871 1862 1857 1848 1828 1816 1805 1802 1800 1804 1799 1792 1779 1762 1748 1721 1703 1692 1681 1670 1657 1628 1606 1593 1588 1601 1606 1611 1619 1627 1618 1613 1616 1612 1611 1625 1631 1636 1644 1646 1646 1645 1647 1653 1654 1651
2568 2568 2553 2553 2541 2537 2512 2479 2493 2519 2549 2575 2583 2597 2637 2659 2653 2628 2614 2625 2626 2622 2630 2636 2640 2628 2624 2617 2593 2608 2611 2608 2602 2584 2575 2567 2556 2547 2541 2525 2524 2541 2555 2546 2543 2536 2530 2497 2488 2477 2468 2479 2474 2473 2466 2450 2435 2421 2422 2408 2404 2402 2397 2389 2389 2385 2370 2364 2341 2335 2335 2335 2324 2298 2298 2297 2279 2258 2233 2214 2196 2209 2223 2228 2250 2260 2265 2255 2246 2228 2219 2203 2178 2165 2167 2154 2128 2108 2084 2064 2027 2007 2016 2037 2042 2040 2042 2046 2028 2012 1991 2018 2046 2060 2076 2090 2098 2108 2118 2126 2135 2140 2136 2123 2111 2125 2142 2150 2157 2158 2164 2169 2181 2173 2190 2208 2216 2221 2231 2241 2248 2243 2247 2264 2273 2284 2292 2300 2307 2313 2326 2336 2347 2366 2406 2417 2435 2447 2457 2462 2456 2442 2430 2411 2407 2378 2362 2356 2350 2346 2341 2336 2321 2310 2300 2278 2291 2293 2300 2312 2321 2326 2328 2326 2324 2330 2352 2363 2371 2368 2364 2377 2395 2390 2395 2387 2388 2390 2384 2380 2373 2370 2369 2366 2359 2355 2349 2347 2357 2346 2334 2337 2327 2316 2301 2294 2294 2294 2273 2265 2251 2234 2234 2247 2239 2223 2215 2217 2212 2228 2230 2224 2217 2205 2214 2214 2205 2193 2188 2182 2164 2160 2155 2148 2136 2132 2120 2107 2093 2086 2057 2040 2025 2003 1975 1975 1981 1977 1983 1982 1976 1954 1932 1914 1912 1905 1898 1886 1873 1865 1858 1852 1828 1827 1822 1814 1804 1802 1789 1778 1768 1750 1734 1703 1688 1678 1670 1652 1625 1598 1601 1604 1611 1621 1624 1631 1638 1630 1632 1635 1628 1623 1636 1643 1648 1660 1659 1657 1654 1657 1665 1667 1663
2572 2586 2584 2589 2566 2552 2532 2498 2506 2534 2576 2604 2605 2600 2625 2664 2656 2648 2641 2643 2632 2627 2630 2640 2632 2627 2610 2593 2585 2590 2613 2596 2593 2583 2562 2555 2556 2563 2553 2544 2543 2551 2566 2559 2554 2552 2540 2522 2502 2482 2468 2496 2486 2488 2481 2463 2451 2443 2436 2428 2431 2421 2419 2416 2404 2393 2388 2383 2367 2365 2359 2355 2336 2316 2330 2324 2310 2295 2259 2214 2215 2239 2248 2253 2264 2282 2285 2277 2269 2260 2233 2216 2193 2189 2179 2165 2140 2116 2094 2074 2056 2036 2045 2059 2066 2064 2062 2046 2049 2039 2027 2018 2035 2063 2076 2089 2096 2101 2106 2115 2121 2132 2146 2134 2119 2133 2157 2164 2170 2173 2177 2179 2181 2182 2194 2208 2216 2229 2238 2253 2256 2255 2261 2263 2276 2286 2293 2303 2310 2317 2327 2337 2345 2369 2398 2413 2430 2442 2453 2464 2468 2461 2446 2424 2407 2393 2377 2370 2363 2361 2350 2342 2328 2314 2304 2297 2311 2317 2325 2329 2333 2336 2334 2331 2333 2349 2371 2380 2386 2376 2370 2387 2395 2389 2401 2396 2379 2386 2381 2375 2370 2366 2367 2377 2376 2371 2354 2335 2342 2339 2331 2327 2313 2299 2291 2289 2288 2280 2269 2264 2251 2251 2230 2242 2241 2228 2214 2201 2208 2217 2224 2216 2206 2202 2210 2206 2197 2189 2176 2168 2160 2155 2146 2140 2131 2129 2117 2109 2097 2086 2083 2049 2034 2011 1987 1994 1998 1994 1996 2004 2000 1982 1947 1933 1934 1923 1911 1900 1889 1880 1874 1872 1858 1854 1841 1827 1819 1802 1787 1775 1761 1744 1727 1696 1679 1664 1652 1634 1618 1605 1621 1630 1627 1642 1643 1648 1650 1645 1648 1648 1642 1635 1643 1651 1665 1660 1675 1673 1672 1684 1683 1681 1673
2577 2595 2609 2614 2600 2556 2534 2516 2524 2549 2596 2622 2627 2621 2643 2672 2667 2671 2661 2652 2642 2637 2632 2640 2626 2626 2592 2589 2581 2574 2585 2583 2584 2578 2557 2535 2525 2558 2569 2568 2568 2575 2573 2570 2573 2562 2548 2510 2490 2481 2490 2496 2508 2503 2504 2498 2485 2486 2466 2461 2456 2441 2439 2435 2425 2419 2408 2400 2396 2391 2383 2366 2351 2348 2359 2348 2329 2300 2271 2238 2243 2249 2261 2280 2290 2294 2300 2295 2282 2269 2233 2217 2207 2201 2192 2177 2156 2126 2107 2091 2071 2074 2085 2100 2102 2092 2086 2066 2049 2062 2049 2037 2038 2046 2056 2070 2079 2092 2100 2111 2118 2128 2138 2141 2134 2147 2156 2171 2175 2179 2184 2184 2186 2194 2197 2207 2216 2228 2240 2249 2256 2261 2265 2270 2280 2286 2292 2299 2308 2316 2329 2339 2349 2372 2389 2412 2422 2433 2443 2463 2477 2473 2456 2436 2419 2405 2391 2379 2376 2373 2360 2349 2335 2322 2317 2310 2322 2330 2336 2340 2343 2343 2345 2351 2353 2368 2371 2385 2384 2379 2375 2381 2384 2389 2393 2392 2386 2373 2368 2367 2369 2367 2357 2366 2366 2358 2342 2328 2339 2334 2329 2321 2315 2308 2294 2280 2276 2273 2274 2273 2260 2251 2225 2240 2243 2234 2218 2206 2198 2203 2217 2215 2200 2194 2202 2198 2192 2184 2176 2158 2152 2137 2130 2124 2117 2111 2111 2106 2105 2095 2095 2062 2041 2019 1995 2003 2009 2013 2014 2016 2012 1994 1970 1964 1955 1942 1928 1916 1906 1901 1900 1896 1886 1869 1853 1832 1816 1802 1787 1772 1758 1742 1728 1704 1686 1674 1654 1634 1617 1634 1642 1645 1643 1648 1659 1664 1672 1665 1664 1662 1661 1647 1656 1667 1681 1675 1675 1694 1694 1702 1704 1699 1682
2583 2599 2624 2631 2619 2570 2553 2555 2539 2555 2594 2619 2635 2647 2649 2669 2676 2676 2678 2660 2655 2648 2631 2631 2627 2610 2591 2586 2574 2573 2566 2566 2570 2562 2554 2550 2538 2549 2563 2557 2564 2562 2555 2568 2572 2560 2543 2521 2516 2501 2519 2516 2508 2526 2523 2519 2506 2504 2518 2517 2491 2479 2465 2457 2452 2436 2430 2421 2420 2413 2397 2380 2375 2372 2377 2362 2338 2319 2280 2253 2243 2281 2297 2309 2314 2314 2315 2308 2290 2271 2249 2216 2212 2208 2196 2179 2166 2145 2123 2102 2082 2123 2125 2124 2131 2124 2107 2093 2081 2086 2074 2054 2058 2057 2061 2065 2068 2086 2096 2103 2111 2126 2140 2154 2149 2159 2166 2176 2180 2185 2188 2192 2202 2206 2205 2216 2222 2228 2238 2247 2252 2261 2267 2270 2286 2295 2296 2299 2305 2313 2329 2349 2358 2372 2385 2406 2419 2439 2450 2464 2473 2474 2471 2455 2439 2417 2403 2390 2380 2377 2373 2354 2341 2330 2328 2322 2320 2348 2354 2355 2353 2357 2364 2367 2369 2379 2383 2383 2379 2375 2375 2385 2387 2384 2392 2397 2386 2372 2368 2367 2357 2360 2347 2351 2352 2351 2344 2329 2323 2332 2339 2335 2327 2317 2296 2290 2288 2288 2286 2266 2255 2243 2225 2235 2246 2235 2221 2220 2209 2196 2207 2211 2201 2190 2194 2196 2190 2181 2175 2171 2164 2142 2141 2133 2129 2119 2106 2105 2113 2102 2095 2084 2047 2027 2010 2008 2019 2027 2025 2023 2023 2007 1987 1980 1971 1959 1944 1934 1927 1922 1918 1911 1901 1875 1855 1831 1815 1798 1783 1774 1759 1745 1729 1717 1683 1670 1656 1633 1630 1642 1648 1661 1660 1656 1668 1679 1684 1683 1684 1683 1679 1666 1676 1681 1695 1692 1692 1694 1707 1719 1717 1703 1686
2589 2613 2636 2643 2632 2583 2588 2585 2564 2562 2583 2602 2630 2651 2658 2673 2681 2675 2672 2657 2643 2632 2627 2633 2627 2613 2591 2585 2571 2549 2561 2566 2562 2543 2543 2550 2531 2522 2538 2544 2554 2552 2548 2563 2563 2550 2538 2528 2521 2513 2526 2529 2527 2526 2538 2533 2534 2523 2528 2533 2514 2498 2489 2484 2482 2474 2473 2469 2455 2445 2417 2417 2401 2397 2394 2370 2341 2312 2283 2260 2264 2281 2336 2337 2333 2327 2320 2306 2285 2268 2239 2232 2224 2209 2188 2171 2169 2147 2123 2106 2102 2133 2141 2157 2155 2141 2134 2126 2107 2086 2093 2089 2093 2088 2081 2082 2080 2085 2089 2100 2116 2130 2139 2163 2164 2166 2176 2182 2186 2194 2201 2207 2211 2216 2214 2221 2225 2229 2238 2249 2255 2258 2267 2276 2285 2297 2302 2306 2312 2326 2340 2362 2373 2386 2393 2404 2433 2448 2456 2465 2470 2466 2470 2466 2449 2429 2403 2398 2385 2379 2372 2359 2343 2334 2331 2329 2335 2361 2364 2364 2365 2375 2382 2382 2383 2390 2389 2389 2385 2387 2384 2374 2382 2381 2392 2383 2373 2362 2363 2361 2349 2345 2344 2340 2346 2345 2339 2325 2315 2329 2337 2341 2327 2310 2297 2286 2283 2282 2284 2279 2251 2237 2220 2235 2246 2241 2231 2221 2213 2203 2191 2200 2193 2185 2190 2191 2180 2168 2174 2177 2170 2147 2137 2129 2120 2114 2116 2103 2112 2113 2099 2084 2053 2035 2032 2021 2027 2040 2037 2038 2039 2023 2014 1996 1984 1972 1959 1948 1941 1931 1920 1908 1894 1883 1853 1827 1813 1801 1788 1774 1756 1744 1727 1711 1683 1666 1648 1633 1639 1645 1657 1671 1671 1667 1685 1699 1705 1703 1711 1707 1702 1689 1695 1702 1710 1711 1702 1701 1707 1726 1710 1688 1674
2589 2615 2639 2657 2643 2624 2615 2596 2579 2571 2583 2602 2623 2641 2653 2659 2678 2670 2648 2653 2633 2623 2636 2615 2624 2613 2587 2570 2563 2523 2533 2536 2535 2527 2533 2538 2521 2515 2517 2532 2535 2546 2544 2550 2550 2547 2540 2537 2538 2526 2533 2535 2537 2542 2542 2542 2539 2542 2538 2532 2528 2517 2528 2527 2520 2523 2515 2498 2477 2461 2457 2449 2428 2412 2392 2367 2338 2316 2303 2287 2273 2319 2336 2352 2347 2329 2315 2291 2270 2264 2253 2254 2226 2206 2181 2166 2161 2143 2117 2118 2139 2165 2173 2179 2179 2176 2166 2151 2134 2117 2093 2117 2134 2122 2123 2118 2110 2105 2101 2102 2107 2126 2143 2151 2179 2184 2183 2189 2192 2201 2209 2215 2221 2225 2227 2222 2227 2234 2241 2254 2259 2270 2279 2286 2292 2303 2311 2320 2328 2349 2355 2378 2394 2404 2405 2418 2441 2450 2456 2459 2461 2460 2466 2464 2452 2450 2434 2398 2394 2390 2377 2368 2354 2344 2342 2339 2344 2372 2374 2375 2388 2401 2401 2396 2400 2399 2391 2385 2388 2396 2393 2379 2373 2375 2387 2383 2363 2357 2364 2365 2358 2343 2343 2334 2344 2346 2338 2327 2311 2312 2327 2332 2323 2306 2287 2282 2270 2261 2259 2259 2248 2238 2216 2231 2246 2245 2235 2228 2217 2207 2191 2189 2182 2188 2187 2185 2176 2165 2167 2170 2163 2158 2136 2126 2120 2113 2108 2097 2101 2111 2101 2088 2072 2061 2044 2032 2042 2049 2046 2051 2051 2037 2029 2004 1993 1982 1970 1949 1933 1921 1903 1885 1872 1863 1836 1813 1800 1793 1786 1771 1756 1747 1734 1717 1699 1654 1642 1646 1649 1656 1663 1684 1686 1682 1695 1716 1718 1719 1724 1721 1715 1713 1722 1720 1730 1728 1714 1715 1719 1719 1695 1672 1655
2602 2621 2655 2676 2666 2653 2637 2628 2602 2587 2606 2618 2625 2635 2664 2673 2678 2674 2655 2633 2629 2625 2630 2618 2619 2602 2587 2581 2569 2532 2525 2520 2528 2520 2518 2522 2503 2510 2521 2521 2526 2538 2535 2543 2547 2539 2538 2540 2532 2528 2542 2539 2539 2534 2542 2538 2537 2542 2543 2534 2540 2539 2545 2543 2541 2537 2522 2515 2489 2479 2484 2457 2455 2423 2388 2367 2351 2329 2318 2310 2311 2350 2358 2357 2350 2331 2308 2287 2277 2277 2268 2260 2224 2202 2195 2181 2148 2127 2130 2136 2165 2191 2192 2202 2204 2196 2187 2175 2155 2136 2111 2117 2150 2149 2150 2145 2138 2134 2128 2115 2115 2122 2136 2153 2188 2197 2203 2201 2211 2214 2218 2225 2228 2234 2237 2232 2232 2238 2245 2254 2271 2282 2289 2300 2302 2308 2325 2331 2346 2359 2375 2390 2404 2414 2414 2423 2435 2444 2452 2455 2457 2455 2461 2463 2463 2456 2444 2408 2403 2394 2387 2378 2369 2359 2352 2354 2354 2372 2387 2393 2404 2412 2416 2417 2416 2407 2397 2395 2380 2392 2391 2383 2370 2366 2378 2369 2363 2347 2361 2367 2360 2345 2333 2329 2336 2348 2345 2334 2312 2303 2325 2331 2328 2309 2285 2271 2270 2258 2239 2242 2240 2215 2210 2230 2246 2235 2218 2217 2216 2208 2193 2173 2191 2198 2191 2179 2165 2160 2160 2156 2155 2148 2135 2125 2114 2107 2100 2092 2092 2097 2099 2089 2073 2073 2055 2042 2058 2065 2064 2066 2069 2057 2044 2031 2008 1989 1970 1950 1928 1901 1885 1869 1855 1843 1812 1804 1796 1783 1767 1767 1752 1747 1714 1691 1678 1660 1665 1675 1673 1670 1683 1696 1705 1701 1705 1718 1726 1729 1735 1741 1734 1735 1743 1744 1746 1744 1736 1727 1725 1719 1687 1667 1650
2615 2636 2659 2681 2680 2678 2679 2639 2613 2606 2626 2641 2647 2643 2669 2682 2683 2663 2654 2639 2633 2623 2611 2617 2613 2586 2581 2581 2563 2545 2525 2509 2510 2499 2502 2500 2505 2508 2516 2514 2526 2528 2533 2531 2540 2533 2532 2538 2528 2524 2535 2532 2525 2527 2541 2538 2525 2535 2541 2535 2536 2529 2544 2546 2536 2532 2529 2512 2501 2500 2507 2481 2468 2451 2424 2396 2364 2343 2338 2344 2330 2341 2366 2357 2347 2324 2320 2312 2303 2288 2279 2255 2230 2229 2211 2194 2177 2178 2189 2194 2205 2213 2220 2227 2228 2226 2211 2198 2176 2147 2139 2138 2150 2162 2179 2168 2160 2158 2153 2147 2137 2125 2144 2160 2177 2204 2219 2222 2225 2230 2236 2243 2246 2245 2244 2250 2256 2253 2258 2263 2271 2308 2320 2328 2329 2327 2347 2353 2360 2377 2389 2400 2410 2423 2426 2428 2429 2442 2446 2448 2447 2450 2459 2464 2463 2462 2453 2438 2403 2407 2399 2388 2384 2376 2370 2363 2369 2384 2396 2399 2408 2419 2427 2435 2427 2414 2400 2387 2379 2374 2371 2367 2368 2359 2359 2363 2353 2347 2355 2364 2347 2334 2325 2327 2338 2343 2337 2329 2313 2296 2319 2322 2318 2307 2290 2269 2260 2255 2240 2233 2225 2203 2205 2229 2241 2235 2212 2198 2197 2193 2183 2171 2187 2187 2188 2174 2161 2153 2151 2151 2146 2138 2132 2122 2119 2118 2110 2093 2089 2101 2101 2090 2076 2073 2070 2056 2069 2086 2086 2082 2084 2070 2052 2037 2008 1987 1964 1947 1936 1927 1901 1885 1874 1854 1839 1810 1796 1784 1773 1758 1741 1717 1714 1698 1692 1689 1711 1710 1705 1700 1705 1708 1721 1725 1723 1727 1739 1741 1750 1760 1753 1758 1766 1764 1760 1755 1748 1727 1720 1707 1687 1671 1648
2620 2649 2665 2681 2700 2694 2682 2639 2633 2629 2637 2662 2673 2671 2673 2679 2666 2668 2657 2639 2616 2624 2616 2610 2605 2586 2580 2582 2549 2542 2527 2518 2508 2492 2484 2477 2492 2503 2508 2510 2525 2514 2526 2524 2513 2509 2514 2525 2533 2524 2521 2526 2516 2519 2531 2539 2525 2532 2532 2533 2525 2528 2539 2532 2529 2530 2523 2521 2523 2511 2502 2489 2472 2450 2425 2408 2387 2355 2368 2376 2357 2355 2362 2356 2347 2343 2337 2325 2309 2293 2285 2267 2268 2250 2234 2217 2202 2206 2229 2244 2253 2263 2273 2269 2253 2245 2232 2213 2196 2180 2163 2160 2175 2185 2207 2203 2207 2199 2177 2169 2157 2144 2141 2161 2178 2208 2224 2234 2239 2246 2252 2258 2259 2256 2255 2256 2265 2265 2268 2278 2294 2308 2345 2363 2359 2355 2367 2378 2380 2393 2404 2414 2419 2428 2432 2436 2433 2442 2445 2446 2443 2444 2447 2458 2458 2457 2454 2443 2423 2407 2413 2400 2392 2391 2385 2376 2384 2394 2399 2403 2415 2426 2432 2441 2424 2405 2397 2392 2385 2378 2378 2370 2363 2359 2354 2350 2344 2341 2350 2351 2335 2322 2317 2328 2328 2328 2325 2318 2306 2289 2300 2314 2312 2301 2286 2266 2249 2245 2236 2233 2226 2222 2200 2220 2231 2228 2212 2207 2201 2193 2194 2184 2159 2167 2182 2175 2166 2159 2144 2152 2146 2134 2126 2117 2119 2120 2112 2099 2087 2097 2101 2088 2087 2090 2070 2068 2077 2098 2104 2100 2091 2072 2049 2031 2015 1980 1972 1964 1953 1936 1912 1919 1896 1865 1848 1818 1807 1788 1773 1759 1739 1722 1710 1715 1714 1705 1725 1730 1726 1721 1723 1737 1740 1746 1743 1748 1754 1762 1767 1774 1776 1783 1786 1784 1777 1763 1747 1717 1708 1700 1690 1671 1652
2620 2667 2678 2686 2707 2708 2683 2662 2658 2644 2639 2666 2677 2689 2683 2673 2655 2658 2650 2631 2599 2601 2608 2596 2586 2578 2571 2574 2560 2543 2541 2518 2515 2501 2483 2469 2478 2487 2488 2498 2508 2514 2517 2526 2514 2505 2496 2506 2510 2511 2518 2518 2510 2515 2516 2520 2514 2532 2541 2522 2525 2524 2539 2531 2529 2515 2519 2520 2524 2517 2498 2492 2469 2455 2431 2409 2395 2379 2384 2395 2383 2370 2377 2378 2357 2343 2342 2334 2317 2298 2285 2289 2295 2285 2259 2229 2221 2246 2276 2286 2288 2292 2294 2291 2271 2252 2229 2219 2208 2216 2213 2198 2193 2185 2220 2233 2224 2214 2206 2190 2173 2160 2156 2157 2170 2212 2227 2241 2253 2264 2272 2275 2273 2273 2274 2272 2275 2283 2291 2310 2317 2329 2345 2375 2376 2373 2379 2389 2396 2412 2423 2427 2429 2427 2425 2432 2435 2433 2437 2440 2439 2440 2441 2446 2450 2451 2451 2450 2433 2426 2413 2414 2405 2400 2396 2390 2397 2402 2405 2409 2419 2429 2436 2441 2425 2412 2406 2395 2384 2389 2397 2390 2380 2370 2361 2346 2338 2342 2350 2333 2334 2319 2317 2334 2328 2315 2308 2294 2293 2281 2288 2300 2297 2289 2281 2265 2249 2238 2222 2228 2233 2227 2197 2212 2229 2232 2224 2207 2218 2207 2207 2197 2185 2160 2180 2173 2164 2158 2140 2141 2140 2131 2118 2103 2101 2105 2100 2089 2086 2086 2089 2096 2105 2103 2085 2068 2090 2100 2105 2101 2097 2080 2060 2039 2020 1997 1991 1974 1950 1931 1923 1923 1908 1887 1862 1847 1815 1801 1782 1766 1746 1725 1720 1715 1730 1714 1746 1756 1747 1742 1744 1755 1762 1766 1766 1774 1773 1774 1780 1783 1784 1796 1802 1797 1775 1756 1738 1721 1699 1693 1686 1673 1652
2638 2667 2701 2708 2719 2711 2689 2692 2671 2655 2657 2678 2683 2686 2676 2668 2660 2660 2643 2641 2629 2606 2594 2585 2581 2564 2557 2563 2543 2543 2529 2517 2511 2499 2495 2474 2465 2478 2470 2486 2497 2503 2495 2505 2499 2492 2488 2492 2492 2502 2507 2514 2507 2506 2510 2524 2532 2536 2526 2512 2511 2511 2523 2518 2513 2504 2506 2509 2516 2516 2504 2491 2470 2457 2441 2433 2421 2407 2406 2412 2404 2391 2392 2393 2373 2350 2342 2342 2327 2310 2304 2320 2318 2310 2283 2254 2255 2265 2290 2300 2300 2304 2306 2301 2270 2255 2239 2228 2223 2228 2222 2228 2223 2211 2220 2253 2247 2238 2226 2207 2185 2185 2187 2178 2176 2196 2230 2245 2256 2269 2280 2290 2295 2303 2299 2298 2298 2301 2309 2330 2342 2351 2365 2380 2382 2380 2388 2401 2412 2419 2423 2424 2418 2412 2414 2420 2429 2435 2428 2427 2429 2430 2429 2434 2440 2438 2444 2448 2448 2435 2422 2414 2419 2413 2405 2401 2409 2414 2414 2410 2425 2434 2441 2436 2423 2411 2401 2392 2401 2400 2397 2382 2366 2358 2354 2351 2344 2328 2329 2333 2320 2308 2311 2318 2319 2314 2303 2292 2274 2271 2281 2281 2275 2274 2270 2254 2245 2240 2218 2213 2223 2212 2189 2205 2221 2233 2230 2228 2232 2227 2220 2206 2194 2151 2172 2174 2165 2151 2140 2136 2145 2138 2128 2120 2100 2093 2091 2086 2084 2090 2098 2099 2110 2111 2101 2084 2090 2103 2107 2105 2102 2083 2059 2041 2030 2002 1983 1969 1951 1942 1942 1926 1925 1915 1891 1867 1818 1804 1790 1767 1740 1733 1741 1738 1730 1728 1737 1772 1772 1766 1765 1772 1778 1784 1784 1788 1787 1782 1788 1789 1798 1805 1804 1794 1773 1752 1738 1723 1696 1683 1674 1663 1645
2647 2672 2712 2725 2724 2717 2703 2700 2685 2682 2692 2695 2695 2694 2694 2692 2675 2668 2662 2634 2622 2621 2611 2595 2565 2553 2544 2537 2527 2526 2529 2505 2500 2494 2495 2474 2460 2463 2471 2483 2487 2487 2475 2475 2482 2486 2477 2482 2481 2486 2492 2506 2502 2499 2505 2511 2521 2522 2526 2509 2503 2507 2514 2506 2500 2508 2504 2517 2519 2504 2503 2490 2482 2450 2460 2456 2443 2444 2440 2433 2430 2416 2410 2397 2379 2367 2362 2371 2363 2341 2327 2339 2337 2328 2288 2279 2282 2278 2297 2304 2309 2313 2314 2310 2294 2275 2263 2265 2249 2250 2246 2254 2249 2239 2250 2255 2268 2256 2237 2207 2207 2211 2215 2207 2200 2192 2231 2246 2260 2273 2288 2299 2309 2318 2320 2317 2315 2332 2332 2342 2359 2367 2374 2380 2389 2393 2399 2399 2400 2405 2407 2408 2406 2407 2410 2413 2422 2433 2430 2420 2421 2421 2420 2425 2429 2424 2434 2441 2439 2432 2433 2426 2434 2424 2418 2418 2421 2423 2422 2423 2434 2441 2442 2442 2430 2414 2400 2413 2427 2414 2402 2370 2369 2369 2363 2345 2338 2330 2331 2329 2320 2305 2294 2299 2301 2296 2289 2285 2269 2260 2266 2267 2262 2259 2248 2231 2230 2226 2205 2201 2208 2203 2196 2190 2205 2223 2227 2234 2232 2233 2217 2201 2188 2172 2154 2169 2168 2159 2143 2128 2134 2136 2128 2117 2099 2090 2089 2085 2084 2093 2106 2108 2112 2110 2103 2087 2094 2097 2098 2102 2100 2085 2075 2061 2049 2033 2009 1988 1974 1960 1946 1938 1937 1927 1919 1902 1872 1806 1780 1763 1761 1763 1761 1754 1742 1728 1744 1776 1787 1788 1786 1792 1800 1800 1799 1800 1798 1795 1807 1806 1808 1803 1795 1788 1764 1752 1741 1725 1713 1678 1667 1654 1629
2662 2686 2712 2724 2734 2730 2720 2720 2719 2707 2709 2708 2710 2708 2688 2685 2663 2659 2653 2635 2617 2612 2614 2595 2587 2562 2541 2533 2530 2515 2515 2505 2493 2492 2490 2477 2473 2459 2453 2471 2475 2484 2470 2463 2470 2485 2474 2480 2477 2480 2488 2506 2496 2503 2505 2511 2508 2519 2520 2509 2505 2503 2505 2498 2494 2503 2499 2505 2513 2500 2499 2498 2482 2467 2475 2469 2458 2454 2449 2444 2439 2428 2423 2414 2379 2378 2374 2371 2368 2352 2364 2370 2350 2337 2335 2305 2300 2298 2302 2314 2322 2324 2331 2325 2318 2295 2290 2290 2267 2269 2256 2263 2269 2266 2270 2276 2268 2254 2225 2221 2231 2230 2239 2233 2221 2213 2214 2245 2264 2277 2290 2305 2314 2323 2329 2335 2336 2354 2351 2354 2361 2368 2374 2379 2389 2388 2393 2395 2386 2389 2391 2396 2400 2405 2403 2404 2411 2420 2419 2415 2414 2418 2417 2422 2421 2417 2426 2433 2432 2425 2428 2430 2434 2427 2428 2429 2431 2427 2425 2427 2439 2443 2442 2448 2437 2427 2422 2430 2431 2412 2390 2381 2370 2358 2347 2346 2348 2346 2351 2344 2334 2319 2291 2277 2280 2277 2272 2260 2248 2247 2253 2250 2251 2243 2237 2223 2210 2208 2209 2192 2194 2197 2191 2186 2199 2207 2218 2232 2238 2233 2211 2197 2186 2177 2142 2147 2150 2152 2146 2131 2121 2135 2129 2118 2106 2094 2088 2084 2083 2092 2103 2112 2109 2099 2092 2084 2089 2097 2094 2104 2106 2099 2079 2071 2057 2054 2027 2005 1987 1971 1960 1957 1948 1943 1931 1913 1875 1807 1795 1795 1795 1787 1781 1771 1764 1748 1744 1765 1799 1807 1812 1811 1817 1818 1814 1810 1811 1808 1821 1818 1808 1798 1791 1782 1770 1755 1746 1726 1714 1677 1655 1641 1623
2674 2697 2714 2724 2716 2722 2728 2731 2732 2723 2716 2712 2708 2700 2680 2677 2656 2649 2643 2650 2618 2620 2600 2578 2566 2551 2549 2539 2533 2513 2503 2499 2484 2482 2474 2475 2476 2476 2462 2454 2461 2472 2463 2454 2465 2488 2481 2480 2473 2473 2472 2491 2494 2487 2486 2493 2498 2516 2507 2507 2505 2496 2502 2497 2494 2485 2484 2484 2487 2488 2490 2492 2486 2481 2472 2462 2459 2454 2445 2439 2436 2432 2423 2415 2386 2395 2395 2384 2368 2381 2383 2383 2367 2355 2353 2325 2327 2314 2317 2332 2334 2336 2348 2343 2337 2333 2307 2308 2296 2287 2272 2282 2290 2290 2289 2295 2274 2253 2237 2249 2252 2249 2255 2247 2242 2236 2230 2246 2257 2278 2292 2308 2317 2333 2342 2351 2356 2361 2360 2360 2357 2363 2375 2381 2385 2388 2384 2382 2379 2378 2378 2388 2391 2394 2396 2398 2404 2407 2409 2406 2405 2411 2412 2414 2413 2414 2420 2426 2425 2419 2424 2420 2428 2427 2429 2431 2436 2425 2421 2428 2431 2432 2438 2445 2447 2446 2445 2442 2426 2409 2396 2393 2368 2366 2361 2358 2363 2357 2350 2341 2335 2324 2294 2284 2271 2266 2271 2260 2240 2230 2236 2236 2240 2226 2224 2218 2211 2200 2195 2190 2188 2197 2188 2173 2192 2202 2213 2223 2231 2225 2211 2197 2186 2183 2151 2138 2126 2132 2142 2139 2125 2117 2127 2126 2109 2099 2089 2084 2082 2087 2097 2108 2106 2095 2084 2083 2083 2089 2094 2090 2092 2095 2094 2082 2080 2074 2057 2028 2013 1992 1981 1976 1967 1957 1942 1926 1888 1823 1820 1818 1817 1808 1802 1793 1777 1756 1750 1783 1816 1822 1826 1821 1824 1825 1822 1826 1823 1821 1825 1822 1807 1796 1790 1783 1770 1757 1742 1726 1708 1695 1652 1638 1626
2693 2704 2715 2718 2716 2721 2725 2730 2726 2726 2721 2715 2699 2690 2677 2681 2653 2651 2643 2642 2619 2603 2590 2571 2561 2549 2541 2525 2520 2512 2498 2490 2484 2474 2468 2456 2468 2476 2465 2451 2458 2453 2456 2440 2457 2472 2480 2471 2466 2465 2461 2465 2492 2484 2479 2478 2482 2490 2486 2491 2499 2490 2495 2503 2494 2491 2486 2470 2470 2477 2483 2490 2488 2486 2465 2458 2449 2441 2441 2436 2432 2427 2418 2406 2398 2407 2409 2401 2385 2381 2395 2387 2375 2364 2361 2350 2348 2330 2333 2344 2349 2354 2363 2360 2355 2353 2327 2317 2311 2302 2297 2311 2317 2322 2315 2303 2287 2253 2267 2273 2281 2278 2269 2263 2263 2254 2250 2250 2267 2280 2291 2307 2318 2335 2341 2351 2357 2361 2359 2364 2365 2370 2374 2379 2386 2383 2373 2372 2371 2376 2378 2383 2385 2388 2388 2388 2389 2390 2390 2392 2395 2404 2406 2407 2403 2413 2421 2418 2415 2412 2415 2414 2413 2422 2429 2422 2428 2420 2420 2424 2426 2425 2429 2436 2441 2445 2447 2445 2430 2413 2397 2385 2386 2380 2364 2365 2360 2348 2334 2322 2319 2314 2306 2307 2290 2275 2275 2262 2245 2225 2219 2221 2223 2211 2209 2206 2192 2195 2188 2180 2177 2189 2188 2169 2192 2198 2204 2211 2215 2213 2208 2205 2194 2184 2176 2149 2130 2120 2120 2121 2128 2120 2116 2118 2110 2104 2093 2090 2082 2090 2103 2103 2098 2084 2081 2080 2081 2082 2086 2090 2088 2095 2098 2096 2094 2084 2066 2048 2032 2015 1999 1988 1971 1955 1935 1914 1882 1855 1842 1840 1836 1827 1821 1804 1778 1765 1774 1783 1814 1840 1839 1830 1837 1838 1836 1841 1840 1833 1834 1817 1803 1794 1788 1779 1771 1757 1743 1731 1713 1692 1658 1637 1621
2690 2702 2708 2714 2718 2721 2712 2716 2718 2724 2725 2711 2686 2670 2660 2672 2658 2659 2645 2635 2617 2585 2588 2564 2549 2555 2539 2520 2508 2513 2497 2471 2458 2474 2468 2456 2460 2455 2459 2444 2440 2440 2439 2433 2442 2461 2457 2451 2449 2456 2446 2438 2450 2477 2487 2480 2476 2474 2463 2476 2487 2490 2489 2492 2475 2470 2472 2471 2467 2468 2473 2476 2483 2477 2449 2442 2439 2427 2432 2430 2426 2423 2408 2396 2392 2408 2412 2403 2396 2397 2395 2391 2391 2384 2375 2377 2362 2339 2341 2354 2368 2375 2376 2381 2371 2360 2345 2328 2328 2318 2319 2326 2335 2336 2323 2303 2289 2282 2267 2285 2294 2295 2284 2281 2280 2268 2270 2278 2288 2286 2295 2310 2322 2335 2346 2348 2356 2359 2355 2362 2366 2373 2378 2385 2384 2376 2373 2368 2366 2374 2375 2376 2379 2376 2377 2379 2376 2380 2381 2379 2392 2398 2402 2396 2400 2409 2412 2407 2406 2405 2410 2408 2401 2415 2419 2422 2420 2412 2412 2416 2419 2419 2421 2426 2436 2440 2436 2435 2416 2400 2395 2384 2397 2376 2374 2375 2364 2347 2326 2331 2332 2325 2325 2307 2299 2278 2266 2247 2239 2238 2221 2215 2209 2204 2186 2181 2173 2178 2180 2187 2171 2176 2180 2166 2177 2188 2198 2202 2205 2205 2207 2205 2193 2182 2171 2145 2137 2138 2134 2120 2113 2111 2106 2104 2098 2096 2090 2087 2082 2090 2100 2094 2087 2082 2083 2078 2078 2079 2080 2083 2088 2102 2108 2104 2099 2091 2074 2060 2026 2007 1994 1974 1958 1938 1920 1905 1877 1877 1870 1860 1849 1839 1817 1793 1783 1788 1805 1805 1814 1853 1853 1846 1853 1855 1857 1855 1852 1846 1841 1827 1799 1794 1788 1779 1769 1756 1744 1737 1719 1697 1664 1646 1625
2666 2684 2690 2706 2716 2708 2697 2711 2704 2707 2722 2708 2691 2670 2656 2665 2641 2633 2632 2634 2619 2585 2583 2565 2549 2529 2518 2520 2509 2502 2489 2481 2462 2465 2468 2445 2437 2431 2444 2443 2433 2432 2429 2425 2424 2435 2439 2439 2449 2436 2440 2436 2446 2455 2459 2459 2456 2455 2452 2458 2470 2483 2489 2480 2473 2460 2454 2454 2469 2467 2464 2474 2480 2471 2455 2432 2427 2421 2425 2424 2418 2412 2401 2389 2387 2390 2401 2401 2403 2402 2396 2398 2403 2398 2388 2387 2369 2351 2353 2367 2384 2392 2393 2396 2385 2375 2363 2342 2341 2329 2331 2339 2349 2341 2329 2313 2297 2297 2286 2285 2308 2310 2306 2302 2294 2285 2290 2290 2304 2298 2309 2317 2338 2345 2343 2349 2351 2351 2345 2354 2361 2369 2372 2378 2375 2371 2368 2368 2363 2359 2366 2370 2370 2368 2371 2366 2368 2369 2374 2371 2379 2387 2389 2392 2396 2400 2405 2403 2398 2398 2401 2400 2394 2408 2406 2412 2415 2406 2404 2406 2409 2412 2415 2423 2430 2435 2427 2426 2414 2404 2396 2396 2402 2382 2382 2368 2351 2332 2336 2351 2341 2336 2337 2325 2299 2273 2267 2261 2256 2242 2230 2234 2221 2205 2182 2182 2173 2167 2162 2164 2165 2171 2169 2159 2175 2181 2188 2192 2194 2192 2196 2199 2193 2182 2168 2159 2153 2149 2139 2126 2127 2127 2124 2121 2113 2098 2089 2084 2081 2085 2085 2084 2081 2083 2080 2078 2078 2081 2082 2084 2094 2099 2108 2104 2098 2089 2073 2052 2015 2001 1981 1957 1943 1930 1915 1898 1897 1913 1907 1877 1864 1845 1819 1821 1805 1807 1836 1838 1835 1853 1876 1873 1879 1877 1874 1874 1869 1857 1843 1827 1804 1795 1790 1786 1774 1760 1747 1739 1726 1708 1683 1651 1636
2645 2654 2665 2671 2673 2689 2697 2682 2678 2684 2701 2700 2700 2689 2662 2647 2626 2621 2609 2606 2601 2588 2573 2545 2533 2529 2516 2504 2501 2485 2484 2490 2467 2468 2453 2445 2439 2427 2429 2430 2418 2413 2406 2413 2415 2424 2432 2430 2429 2422 2426 2433 2434 2436 2456 2463 2445 2447 2449 2449 2454 2455 2475 2480 2452 2446 2443 2451 2461 2458 2459 2471 2470 2461 2446 2419 2412 2414 2416 2409 2406 2404 2392 2383 2380 2383 2395 2397 2398 2395 2393 2398 2397 2399 2392 2387 2383 2368 2365 2374 2391 2398 2399 2401 2396 2389 2378 2364 2356 2342 2342 2353 2364 2353 2340 2323 2311 2316 2306 2303 2308 2326 2324 2316 2306 2302 2305 2314 2318 2315 2323 2333 2345 2348 2349 2344 2342 2340 2343 2345 2351 2359 2365 2374 2367 2367 2365 2365 2363 2351 2362 2362 2365 2364 2362 2363 2363 2365 2366 2361 2366 2384 2384 2395 2399 2404 2398 2400 2391 2390 2396 2394 2392 2403 2400 2411 2415 2399 2401 2400 2404 2408 2408 2418 2425 2431 2421 2413 2416 2406 2400 2400 2403 2385 2369 2363 2351 2338 2352 2363 2349 2347 2342 2327 2287 2273 2278 2273 2265 2251 2244 2252 2240 2227 2208 2196 2187 2177 2174 2159 2161 2170 2158 2162 2181 2192 2195 2190 2182 2181 2188 2190 2188 2182 2179 2176 2169 2160 2143 2143 2141 2138 2138 2129 2116 2102 2091 2084 2082 2079 2079 2087 2079 2077 2079 2080 2081 2082 2083 2085 2090 2099 2101 2100 2097 2087 2073 2056 2022 2006 1994 1976 1956 1941 1931 1940 1949 1943 1933 1900 1883 1861 1834 1848 1825 1823 1850 1865 1856 1863 1876 1889 1892 1892 1892 1885 1873 1858 1845 1830 1819 1801 1793 1785 1775 1764 1754 1736 1720 1706 1690 1660 1643
2603 2624 2644 2642 2640 2658 2667 2682 2669 2673 2694 2694 2688 2673 2659 2650 2635 2623 2603 2586 2591 2585 2562 2555 2534 2528 2507 2496 2491 2481 2477 2484 2474 2459 2449 2445 2445 2440 2431 2428 2425 2428 2413 2402 2407 2416 2408 2414 2408 2406 2420 2429 2423 2429 2439 2438 2433 2443 2439 2452 2443 2442 2458 2459 2462 2434 2439 2428 2434 2450 2452 2462 2463 2453 2435 2423 2410 2403 2400 2399 2395 2390 2380 2376 2374 2373 2382 2386 2387 2390 2389 2391 2397 2388 2388 2386 2380 2379 2378 2373 2383 2388 2392 2390 2390 2389 2383 2381 2379 2371 2368 2367 2373 2362 2344 2337 2330 2330 2327 2325 2323 2333 2335 2329 2317 2313 2315 2318 2322 2326 2336 2337 2341 2342 2333 2337 2332 2333 2335 2343 2355 2367 2369 2373 2362 2361 2356 2357 2355 2351 2347 2357 2360 2360 2359 2357 2356 2358 2360 2357 2359 2374 2380 2392 2394 2399 2395 2394 2385 2384 2388 2389 2385 2393 2395 2405 2404 2399 2395 2399 2400 2402 2408 2415 2422 2424 2417 2410 2411 2394 2397 2390 2384 2381 2366 2353 2350 2341 2354 2366 2361 2350 2335 2317 2295 2286 2290 2284 2275 2264 2263 2261 2249 2233 2220 2199 2191 2181 2181 2161 2148 2158 2156 2168 2183 2187 2189 2189 2176 2163 2176 2186 2184 2186 2179 2178 2180 2165 2160 2160 2155 2145 2133 2122 2112 2100 2091 2083 2082 2078 2078 2077 2080 2081 2080 2084 2088 2091 2090 2091 2095 2098 2101 2101 2094 2087 2075 2064 2048 2033 2009 1987 1982 1973 1953 1958 1966 1953 1935 1917 1887 1867 1872 1867 1842 1837 1861 1881 1887 1880 1898 1910 1913 1910 1906 1892 1880 1863 1850 1838 1828 1807 1794 1783 1771 1760 1747 1732 1716 1703 1687 1669 1645
2577 2611 2625 2628 2635 2632 2649 2656 2669 2648 2666 2682 2686 2666 2646 2640 2631 2621 2602 2586 2582 2588 2557 2551 2556 2534 2521 2509 2501 2495 2480 2474 2466 2456 2440 2442 2445 2442 2444 2449 2445 2437 2427 2412 2403 2402 2395 2402 2413 2410 2420 2424 2419 2425 2424 2433 2426 2425 2438 2444 2440 2434 2441 2437 2443 2426 2431 2427 2430 2443 2448 2454 2447 2443 2427 2420 2406 2398 2392 2389 2387 2381 2373 2366 2365 2360 2367 2378 2380 2383 2389 2386 2386 2388 2381 2375 2372 2379 2379 2376 2373 2375 2376 2376 2376 2379 2379 2377 2382 2383 2379 2378 2377 2367 2359 2349 2341 2339 2337 2334 2336 2333 2340 2334 2319 2314 2316 2315 2325 2327 2331 2334 2332 2329 2322 2328 2326 2328 2332 2341 2354 2362 2366 2376 2364 2348 2348 2350 2344 2344 2339 2349 2353 2358 2356 2351 2353 2352 2354 2352 2354 2358 2376 2384 2387 2389 2390 2390 2380 2378 2384 2380 2369 2391 2398 2406 2396 2394 2395 2397 2398 2397 2403 2414 2417 2420 2415 2403 2402 2393 2391 2387 2378 2382 2369 2369 2359 2345 2356 2367 2355 2342 2327 2325 2324 2300 2290 2297 2287 2269 2266 2257 2243 2229 2216 2202 2180 2174 2173 2164 2150 2142 2145 2161 2171 2171 2171 2172 2169 2155 2158 2165 2168 2175 2177 2184 2181 2174 2166 2159 2147 2144 2130 2121 2108 2098 2088 2081 2081 2077 2077 2077 2078 2081 2089 2097 2093 2101 2097 2099 2101 2112 2110 2101 2099 2091 2081 2071 2065 2044 2019 1999 2010 2004 1988 1979 1975 1957 1935 1932 1902 1902 1902 1883 1851 1853 1875 1904 1916 1905 1918 1910 1938 1931 1917 1898 1888 1875 1859 1843 1832 1805 1793 1783 1777 1761 1740 1723 1712 1697 1673 1663 1637
2560 2592 2602 2610 2606 2622 2635 2625 2637 2648 2650 2672 2678 2676 2642 2625 2617 2607 2595 2591 2583 2586 2572 2562 2552 2546 2539 2515 2501 2487 2487 2488 2478 2467 2466 2458 2451 2442 2459 2460 2452 2445 2429 2417 2398 2405 2381 2399 2416 2418 2409 2411 2409 2414 2411 2426 2429 2409 2427 2438 2441 2432 2427 2438 2439 2436 2418 2415 2426 2436 2444 2435 2431 2430 2419 2409 2396 2384 2381 2380 2373 2364 2363 2356 2353 2350 2352 2361 2369 2373 2381 2381 2378 2378 2381 2366 2361 2365 2375 2369 2368 2366 2367 2368 2374 2373 2373 2372 2374 2376 2372 2373 2373 2365 2358 2349 2341 2333 2328 2328 2332 2335 2340 2328 2320 2316 2310 2314 2319 2323 2321 2324 2318 2317 2313 2313 2317 2322 2331 2338 2342 2354 2354 2366 2363 2345 2341 2341 2340 2340 2339 2331 2341 2346 2348 2347 2346 2348 2350 2350 2349 2351 2377 2380 2379 2379 2378 2380 2373 2371 2371 2368 2364 2384 2396 2403 2395 2387 2394 2397 2394 2396 2402 2404 2409 2411 2416 2405 2397 2395 2377 2376 2367 2378 2377 2373 2358 2354 2360 2360 2355 2343 2328 2337 2334 2317 2304 2297 2289 2274 2257 2255 2243 2224 2203 2189 2177 2165 2157 2152 2149 2141 2141 2153 2160 2156 2160 2157 2164 2158 2146 2151 2154 2156 2173 2184 2169 2162 2155 2148 2130 2121 2114 2114 2114 2102 2089 2081 2077 2076 2081 2087 2083 2081 2086 2101 2104 2105 2111 2111 2112 2119 2112 2106 2099 2097 2090 2082 2075 2066 2023 2033 2039 2030 2020 2007 1987 1963 1962 1961 1925 1915 1909 1890 1878 1874 1899 1922 1934 1932 1941 1935 1938 1938 1922 1908 1892 1880 1865 1841 1825 1814 1796 1788 1777 1761 1739 1727 1718 1696 1675 1663 1648
2563 2575 2590 2588 2581 2589 2595 2616 2619 2638 2634 2668 2675 2670 2643 2627 2635 2630 2611 2599 2587 2581 2594 2572 2558 2548 2541 2528 2510 2496 2505 2500 2486 2475 2476 2462 2448 2451 2459 2452 2449 2432 2429 2421 2407 2391 2371 2383 2400 2405 2401 2396 2402 2405 2407 2413 2414 2410 2410 2423 2428 2430 2427 2432 2421 2421 2418 2410 2417 2417 2422 2426 2427 2421 2412 2409 2396 2376 2378 2372 2363 2354 2354 2350 2345 2344 2345 2349 2363 2366 2373 2373 2365 2368 2372 2359 2355 2355 2368 2365 2361 2356 2359 2360 2364 2367 2365 2370 2368 2361 2356 2356 2356 2353 2350 2345 2330 2325 2319 2320 2322 2325 2331 2328 2317 2313 2303 2308 2309 2312 2311 2312 2308 2310 2308 2306 2316 2320 2324 2329 2338 2338 2341 2343 2336 2328 2332 2332 2329 2336 2332 2331 2335 2337 2338 2341 2340 2341 2343 2344 2351 2354 2361 2372 2370 2369 2369 2368 2362 2366 2364 2359 2361 2388 2399 2403 2399 2381 2391 2392 2393 2395 2396 2401 2400 2401 2405 2398 2393 2393 2382 2369 2361 2371 2378 2368 2366 2365 2362 2353 2339 2331 2329 2346 2340 2338 2320 2301 2289 2275 2257 2248 2241 2221 2209 2197 2171 2175 2174 2158 2150 2143 2135 2147 2151 2142 2144 2145 2158 2154 2138 2134 2140 2145 2160 2169 2169 2146 2138 2137 2126 2121 2110 2101 2105 2096 2083 2077 2076 2075 2092 2104 2099 2095 2085 2094 2104 2106 2111 2108 2118 2125 2115 2108 2104 2100 2095 2087 2076 2066 2043 2055 2056 2047 2030 2007 1982 1978 1990 1974 1960 1923 1921 1909 1913 1901 1911 1925 1939 1955 1966 1966 1954 1938 1926 1911 1898 1887 1866 1847 1830 1815 1796 1787 1775 1751 1735 1722 1706 1688 1662 1651 1640
2546 2557 2577 2568 2564 2562 2574 2582 2582 2618 2634 2637 2650 2667 2663 2658 2653 2636 2624 2612 2590 2583 2582 2569 2543 2541 2534 2521 2515 2502 2510 2503 2498 2496 2466 2464 2465 2459 2456 2447 2437 2430 2428 2415 2394 2380 2367 2372 2388 2384 2382 2379 2388 2391 2400 2405 2402 2395 2411 2430 2416 2419 2418 2420 2420 2398 2394 2410 2417 2405 2412 2415 2415 2414 2405 2405 2394 2368 2358 2355 2348 2343 2341 2340 2337 2332 2339 2342 2353 2358 2361 2359 2357 2358 2361 2359 2342 2348 2353 2360 2355 2347 2351 2349 2353 2357 2359 2362 2359 2351 2332 2339 2343 2340 2335 2329 2319 2323 2318 2311 2311 2316 2321 2318 2306 2302 2299 2301 2298 2298 2298 2303 2298 2298 2299 2292 2302 2310 2313 2323 2330 2333 2333 2333 2324 2321 2321 2324 2321 2324 2329 2324 2335 2330 2330 2327 2332 2332 2331 2341 2347 2352 2364 2361 2357 2358 2359 2363 2351 2354 2354 2355 2364 2377 2396 2388 2393 2384 2378 2383 2393 2396 2394 2396 2397 2390 2397 2387 2390 2403 2395 2377 2364 2359 2368 2371 2375 2366 2354 2342 2338 2344 2336 2343 2335 2324 2310 2302 2293 2262 2247 2243 2231 2217 2203 2188 2187 2192 2185 2171 2161 2151 2136 2138 2144 2139 2133 2129 2151 2157 2147 2129 2131 2142 2154 2159 2156 2146 2126 2125 2121 2109 2101 2092 2091 2083 2075 2074 2074 2088 2100 2112 2111 2105 2089 2089 2095 2101 2108 2113 2122 2131 2121 2113 2108 2100 2098 2087 2077 2062 2063 2068 2060 2047 2026 2010 2007 2006 2008 1997 1972 1942 1945 1939 1949 1943 1963 1951 1954 1970 1980 1981 1965 1946 1926 1919 1899 1881 1865 1847 1837 1821 1810 1782 1766 1749 1728 1711 1692 1676 1660 1640 1628
2513 2522 2544 2550 2549 2542 2550 2562 2574 2599 2616 2637 2632 2650 2658 2655 2641 2624 2631 2615 2599 2588 2584 2566 2542 2543 2538 2525 2525 2513 2509 2503 2504 2501 2490 2475 2468 2464 2459 2447 2431 2434 2418 2410 2397 2387 2357 2358 2368 2363 2374 2376 2372 2381 2395 2399 2402 2379 2398 2411 2407 2410 2402 2402 2418 2392 2385 2405 2417 2397 2398 2410 2414 2407 2399 2397 2386 2374 2351 2338 2336 2332 2330 2331 2333 2327 2330 2331 2344 2350 2354 2352 2348 2350 2351 2344 2342 2340 2345 2352 2351 2339 2343 2344 2347 2348 2348 2351 2350 2349 2336 2328 2331 2329 2324 2316 2321 2321 2310 2298 2300 2306 2312 2310 2306 2292 2294 2299 2290 2284 2287 2287 2284 2284 2291 2283 2289 2302 2312 2322 2334 2333 2329 2328 2318 2316 2317 2316 2314 2316 2322 2320 2319 2330 2322 2321 2323 2322 2325 2334 2342 2346 2355 2352 2347 2348 2351 2358 2343 2347 2344 2352 2367 2372 2382 2377 2383 2377 2370 2386 2393 2396 2391 2388 2387 2381 2387 2380 2386 2391 2391 2379 2370 2363 2356 2370 2361 2354 2352 2358 2352 2357 2352 2336 2326 2312 2303 2288 2277 2262 2245 2229 2217 2211 2197 2198 2207 2201 2186 2172 2156 2148 2141 2132 2135 2135 2126 2117 2143 2150 2141 2124 2124 2138 2144 2143 2140 2138 2127 2106 2110 2112 2103 2089 2078 2074 2074 2077 2082 2089 2098 2111 2122 2113 2094 2092 2105 2123 2125 2126 2124 2137 2131 2121 2109 2105 2098 2088 2084 2071 2064 2077 2063 2047 2032 2034 2029 2020 2011 1994 1971 1962 1973 1974 1981 1972 1974 1977 1981 1990 1995 1997 1975 1958 1938 1925 1900 1883 1866 1847 1835 1820 1807 1787 1766 1749 1729 1709 1693 1676 1663 1648 1630
2498 2516 2539 2535 2524 2527 2536 2546 2568 2576 2591 2606 2632 2625 2648 2640 2626 2607 2600 2598 2600 2579 2572 2568 2544 2534 2526 2523 2523 2507 2507 2500 2507 2504 2491 2477 2460 2461 2451 2438 2431 2430 2415 2403 2391 2379 2344 2340 2344 2347 2356 2367 2355 2371 2387 2391 2392 2386 2388 2394 2394 2401 2390 2381 2408 2387 2373 2397 2406 2392 2395 2395 2394 2389 2388 2387 2378 2367 2347 2334 2326 2321 2320 2325 2328 2320 2323 2328 2333 2342 2349 2344 2341 2340 2342 2338 2336 2340 2335 2342 2337 2340 2333 2339 2339 2339 2342 2343 2338 2337 2323 2317 2321 2320 2315 2310 2320 2320 2312 2294 2293 2286 2293 2291 2292 2292 2285 2290 2281 2277 2273 2276 2269 2274 2275 2276 2282 2297 2309 2320 2330 2330 2323 2322 2319 2315 2313 2312 2311 2313 2319 2315 2317 2318 2315 2315 2315 2317 2319 2330 2332 2338 2341 2341 2339 2338 2340 2341 2331 2340 2346 2352 2359 2362 2370 2372 2377 2365 2373 2392 2400 2401 2391 2383 2381 2376 2381 2375 2375 2373 2377 2372 2361 2356 2358 2377 2356 2359 2364 2367 2363 2360 2346 2334 2324 2319 2309 2304 2292 2266 2245 2236 2218 2206 2209 2213 2220 2211 2180 2170 2161 2161 2153 2139 2136 2137 2139 2120 2134 2135 2135 2121 2122 2133 2130 2125 2125 2132 2124 2104 2097 2099 2092 2079 2074 2074 2088 2094 2103 2095 2096 2106 2121 2121 2102 2101 2099 2112 2124 2131 2130 2139 2140 2129 2122 2110 2096 2088 2092 2086 2082 2082 2068 2053 2051 2050 2040 2025 2005 1992 1977 1995 1994 1999 1997 1986 1983 2000 2012 2014 2011 2004 1992 1965 1946 1925 1894 1876 1859 1843 1834 1820 1803 1789 1757 1736 1717 1700 1682 1669 1657 1646 1634
2496 2498 2505 2504 2514 2526 2532 2534 2554 2570 2586 2598 2614 2602 2643 2647 2633 2625 2613 2597 2588 2570 2562 2542 2546 2523 2525 2519 2513 2505 2490 2499 2504 2506 2496 2481 2459 2445 2439 2416 2423 2430 2395 2386 2380 2380 2352 2334 2337 2335 2344 2348 2354 2359 2383 2382 2377 2386 2394 2382 2376 2378 2375 2370 2368 2356 2354 2369 2382 2392 2383 2383 2378 2376 2374 2371 2365 2351 2341 2331 2324 2316 2314 2322 2330 2318 2315 2316 2318 2334 2342 2336 2339 2337 2332 2328 2328 2330 2328 2331 2332 2332 2326 2331 2333 2334 2335 2339 2337 2329 2321 2300 2312 2314 2313 2310 2315 2314 2306 2301 2295 2291 2279 2281 2280 2282 2285 2281 2278 2264 2262 2261 2266 2260 2263 2271 2278 2288 2298 2311 2322 2317 2318 2321 2318 2311 2316 2308 2308 2308 2313 2313 2310 2304 2315 2301 2302 2302 2310 2321 2326 2330 2332 2332 2330 2329 2327 2325 2327 2334 2341 2347 2351 2355 2357 2367 2364 2359 2378 2397 2400 2396 2391 2383 2373 2369 2371 2371 2369 2366 2359 2356 2354 2358 2363 2374 2371 2367 2371 2371 2373 2359 2346 2335 2328 2318 2307 2304 2289 2270 2255 2236 2219 2215 2223 2222 2221 2214 2188 2178 2174 2168 2159 2150 2143 2144 2138 2122 2114 2116 2124 2114 2112 2119 2118 2115 2112 2121 2118 2115 2094 2086 2076 2074 2072 2087 2098 2096 2104 2105 2109 2109 2127 2122 2105 2121 2110 2107 2111 2113 2121 2132 2143 2145 2130 2115 2098 2093 2092 2102 2090 2100 2079 2068 2061 2055 2039 2020 2009 2011 2003 2009 2007 2023 2016 2005 2008 2011 2025 2031 2020 2000 1982 1955 1942 1918 1894 1873 1864 1854 1843 1828 1813 1796 1773 1747 1724 1705 1689 1676 1664 1657 1643
2472 2477 2479 2465 2506 2502 2523 2529 2535 2548 2568 2580 2589 2602 2633 2646 2637 2631 2621 2588 2586 2559 2553 2534 2535 2521 2519 2512 2507 2503 2499 2500 2501 2493 2483 2467 2444 2431 2421 2412 2412 2409 2395 2367 2364 2365 2358 2349 2343 2332 2329 2329 2330 2346 2365 2368 2362 2360 2374 2376 2366 2369 2367 2359 2347 2344 2338 2350 2375 2388 2383 2374 2370 2365 2362 2357 2351 2343 2331 2324 2316 2313 2308 2315 2323 2309 2306 2306 2310 2318 2338 2334 2331 2325 2320 2320 2322 2323 2328 2324 2323 2327 2320 2328 2330 2330 2326 2329 2324 2322 2308 2295 2302 2305 2309 2311 2308 2312 2305 2294 2293 2286 2269 2271 2269 2270 2274 2281 2276 2263 2257 2257 2259 2254 2263 2273 2281 2282 2286 2303 2311 2309 2317 2321 2311 2307 2308 2302 2296 2297 2306 2309 2306 2293 2303 2301 2288 2293 2311 2315 2315 2313 2316 2319 2320 2313 2315 2317 2321 2327 2337 2344 2346 2350 2354 2364 2358 2363 2376 2393 2391 2390 2392 2388 2374 2373 2366 2366 2372 2367 2356 2350 2352 2365 2363 2361 2367 2365 2362 2363 2373 2360 2339 2327 2323 2317 2320 2310 2284 2271 2253 2240 2219 2229 2233 2229 2226 2217 2217 2186 2171 2166 2158 2152 2147 2136 2128 2113 2116 2108 2109 2112 2111 2107 2105 2099 2109 2105 2103 2106 2094 2072 2080 2081 2086 2090 2103 2107 2113 2118 2116 2117 2129 2124 2115 2125 2126 2125 2124 2125 2124 2131 2138 2147 2139 2124 2109 2104 2105 2108 2103 2105 2094 2080 2065 2051 2039 2029 2026 2025 2018 2023 2030 2042 2038 2031 2033 2039 2043 2037 2017 1995 1976 1963 1930 1909 1890 1873 1876 1861 1848 1833 1816 1801 1778 1761 1739 1724 1707 1686 1667 1653 1639
2460 2456 2463 2444 2480 2488 2496 2507 2518 2527 2549 2563 2568 2597 2633 2630 2618 2609 2608 2592 2589 2578 2554 2531 2521 2523 2506 2506 2502 2496 2495 2492 2485 2476 2459 2447 2429 2413 2408 2402 2395 2394 2384 2389 2369 2366 2363 2358 2347 2334 2312 2328 2327 2333 2334 2347 2350 2350 2365 2360 2365 2361 2366 2354 2346 2331 2335 2341 2354 2375 2375 2374 2357 2358 2347 2343 2334 2322 2320 2314 2310 2308 2306 2303 2312 2302 2295 2301 2293 2308 2324 2324 2323 2315 2312 2314 2313 2314 2319 2324 2314 2314 2311 2318 2321 2323 2318 2321 2315 2311 2300 2295 2294 2299 2301 2302 2307 2307 2303 2294 2281 2283 2262 2261 2256 2254 2261 2272 2264 2255 2246 2249 2244 2254 2257 2265 2272 2275 2278 2294 2300 2301 2310 2315 2303 2306 2298 2297 2295 2289 2293 2300 2299 2291 2289 2290 2288 2288 2301 2307 2305 2304 2301 2302 2305 2306 2307 2306 2313 2317 2325 2331 2341 2347 2355 2360 2355 2364 2373 2379 2383 2381 2384 2381 2374 2369 2355 2359 2364 2368 2362 2338 2347 2361 2364 2356 2365 2361 2354 2355 2361 2349 2342 2342 2339 2329 2313 2293 2272 2261 2244 2232 2233 2239 2243 2238 2231 2214 2208 2200 2176 2160 2158 2156 2152 2132 2127 2121 2103 2101 2095 2092 2095 2097 2101 2092 2099 2096 2106 2105 2085 2072 2091 2095 2097 2091 2101 2111 2116 2126 2129 2129 2131 2130 2123 2129 2134 2139 2137 2135 2128 2130 2141 2151 2147 2134 2125 2120 2120 2108 2128 2115 2108 2080 2065 2057 2048 2042 2040 2032 2032 2041 2044 2054 2054 2045 2048 2052 2050 2036 2019 1996 1977 1961 1931 1914 1900 1888 1871 1856 1843 1827 1814 1799 1788 1758 1740 1726 1709 1689 1666 1647 1634
2430 2431 2434 2440 2459 2477 2485 2494 2505 2513 2522 2539 2571 2602 2633 2630 2604 2586 2579 2571 2575 2572 2545 2515 2513 2506 2509 2499 2491 2490 2495 2492 2482 2461 2455 2434 2425 2417 2417 2413 2405 2405 2400 2389 2386 2381 2367 2364 2339 2327 2319 2303 2296 2317 2324 2332 2344 2349 2353 2356 2356 2354 2349 2356 2337 2325 2328 2334 2340 2360 2354 2353 2357 2335 2326 2316 2317 2315 2314 2310 2306 2302 2299 2299 2303 2298 2285 2285 2287 2296 2306 2320 2314 2308 2304 2307 2307 2312 2316 2315 2314 2308 2308 2313 2316 2316 2312 2309 2307 2297 2286 2283 2293 2302 2300 2294 2301 2301 2300 2293 2285 2273 2266 2259 2256 2244 2252 2263 2264 2252 2238 2233 2231 2232 2250 2259 2268 2271 2271 2283 2288 2287 2296 2304 2299 2301 2291 2289 2288 2292 2284 2287 2284 2281 2276 2279 2277 2288 2292 2297 2295 2294 2293 2288 2294 2293 2299 2298 2303 2304 2314 2322 2330 2335 2345 2349 2359 2365 2370 2373 2372 2377 2380 2381 2380 2369 2360 2354 2359 2364 2359 2343 2342 2348 2349 2356 2360 2348 2339 2349 2349 2332 2331 2329 2329 2320 2304 2297 2300 2271 2261 2249 2240 2239 2248 2240 2222 2208 2200 2201 2178 2151 2141 2141 2145 2133 2126 2119 2106 2091 2094 2084 2081 2080 2084 2086 2087 2093 2105 2107 2099 2074 2091 2098 2103 2095 2096 2103 2114 2124 2119 2116 2129 2137 2135 2137 2148 2150 2147 2143 2134 2125 2140 2144 2148 2144 2136 2134 2123 2114 2128 2134 2120 2089 2078 2070 2060 2050 2048 2045 2043 2050 2053 2059 2064 2060 2060 2053 2043 2035 2017 1994 1976 1957 1941 1916 1901 1887 1871 1853 1840 1826 1814 1801 1785 1755 1737 1713 1692 1683 1662 1644 1625
2402 2400 2402 2421 2434 2455 2469 2478 2489 2504 2507 2524 2546 2578 2608 2625 2604 2582 2554 2534 2531 2551 2533 2516 2508 2512 2508 2496 2490 2483 2494 2494 2486 2476 2462 2447 2446 2443 2437 2435 2421 2419 2413 2399 2386 2380 2369 2349 2322 2318 2301 2285 2294 2308 2315 2333 2336 2340 2343 2345 2346 2334 2329 2333 2324 2320 2317 2321 2318 2323 2325 2331 2336 2313 2309 2306 2309 2309 2308 2306 2300 2296 2292 2295 2295 2289 2279 2276 2281 2288 2306 2318 2311 2300 2303 2302 2301 2310 2313 2308 2312 2315 2302 2302 2306 2308 2308 2297 2292 2290 2277 2279 2291 2300 2294 2290 2296 2297 2295 2288 2280 2269 2267 2258 2258 2248 2243 2252 2252 2252 2233 2220 2220 2230 2246 2253 2260 2263 2262 2266 2270 2271 2278 2289 2294 2289 2287 2287 2278 2277 2278 2275 2266 2264 2265 2272 2273 2285 2283 2287 2287 2281 2277 2272 2276 2283 2295 2304 2305 2309 2316 2316 2318 2323 2331 2337 2350 2362 2364 2367 2371 2379 2382 2379 2380 2374 2360 2347 2354 2355 2354 2329 2337 2341 2340 2352 2359 2344 2327 2335 2339 2331 2320 2314 2310 2304 2304 2305 2298 2281 2272 2259 2251 2251 2248 2237 2218 2204 2196 2192 2169 2156 2148 2140 2131 2131 2137 2125 2119 2104 2098 2095 2091 2077 2071 2074 2083 2091 2099 2102 2089 2078 2091 2101 2111 2102 2107 2114 2114 2111 2107 2114 2133 2140 2136 2134 2143 2154 2155 2148 2141 2139 2137 2142 2149 2157 2151 2135 2130 2137 2139 2134 2137 2103 2092 2083 2075 2066 2062 2061 2059 2059 2055 2052 2049 2050 2052 2046 2038 2032 2019 2000 1984 1965 1947 1909 1891 1879 1864 1853 1840 1827 1815 1800 1778 1764 1722 1709 1688 1676 1649 1629 1610
2388 2374 2388 2402 2419 2427 2450 2462 2486 2494 2497 2520 2531 2562 2596 2619 2611 2574 2562 2543 2538 2545 2519 2515 2506 2504 2499 2489 2491 2484 2482 2486 2490 2486 2478 2467 2461 2463 2448 2437 2430 2426 2414 2405 2388 2380 2352 2347 2316 2309 2286 2275 2288 2305 2315 2315 2314 2324 2336 2333 2332 2329 2323 2315 2314 2308 2310 2313 2310 2307 2324 2315 2314 2313 2298 2301 2300 2299 2299 2297 2290 2281 2282 2282 2282 2274 2266 2270 2276 2288 2305 2307 2305 2294 2296 2297 2295 2300 2304 2300 2306 2310 2299 2298 2298 2302 2303 2300 2290 2285 2280 2271 2274 2291 2282 2286 2289 2287 2282 2276 2272 2267 2266 2259 2244 2241 2239 2246 2245 2244 2233 2212 2215 2226 2242 2250 2250 2255 2250 2253 2259 2263 2265 2273 2279 2285 2282 2281 2276 2274 2273 2265 2253 2245 2256 2268 2270 2279 2283 2281 2280 2274 2271 2267 2264 2272 2271 2294 2302 2309 2311 2312 2313 2321 2336 2341 2350 2359 2357 2362 2369 2376 2382 2377 2376 2367 2360 2347 2341 2340 2342 2334 2322 2327 2339 2351 2356 2346 2340 2317 2327 2333 2332 2320 2313 2311 2311 2306 2295 2284 2264 2254 2243 2244 2244 2237 2207 2195 2192 2179 2171 2178 2166 2147 2133 2135 2147 2136 2123 2114 2112 2107 2100 2088 2076 2066 2077 2086 2090 2087 2076 2066 2097 2101 2107 2099 2107 2109 2100 2105 2112 2117 2127 2123 2125 2132 2142 2153 2161 2159 2156 2153 2147 2150 2160 2165 2156 2147 2144 2148 2149 2148 2137 2121 2101 2093 2087 2082 2077 2076 2064 2048 2044 2041 2034 2034 2039 2033 2028 2025 2015 1998 1982 1965 1953 1906 1889 1875 1863 1852 1840 1828 1811 1792 1763 1740 1704 1692 1678 1664 1644 1625 1611
2369 2356 2364 2374 2399 2403 2433 2449 2461 2471 2492 2512 2525 2560 2587 2605 2607 2574 2556 2550 2546 2534 2507 2509 2495 2497 2495 2488 2482 2471 2477 2474 2479 2481 2482 2476 2471 2462 2451 2443 2434 2427 2415 2406 2393 2375 2352 2352 2336 2307 2286 2276 2267 2291 2307 2308 2310 2321 2330 2330 2327 2322 2313 2304 2305 2300 2302 2308 2301 2298 2293 2291 2295 2296 2298 2294 2287 2286 2285 2283 2278 2269 2267 2265 2265 2258 2256 2266 2275 2286 2297 2301 2289 2286 2288 2289 2290 2291 2296 2293 2300 2307 2297 2294 2291 2292 2300 2296 2283 2281 2276 2266 2271 2280 2270 2278 2274 2274 2270 2264 2266 2260 2255 2249 2234 2231 2230 2236 2236 2235 2225 2212 2211 2223 2235 2246 2241 2238 2240 2244 2250 2255 2260 2258 2261 2268 2276 2274 2269 2268 2266 2261 2255 2245 2251 2257 2267 2275 2276 2281 2272 2266 2265 2259 2259 2271 2270 2285 2294 2299 2307 2303 2311 2328 2340 2350 2358 2359 2362 2360 2364 2366 2367 2369 2373 2367 2355 2347 2333 2334 2327 2325 2318 2319 2331 2340 2350 2348 2341 2314 2326 2325 2324 2316 2316 2303 2298 2289 2283 2280 2251 2251 2234 2233 2227 2224 2207 2186 2181 2173 2178 2183 2164 2154 2147 2139 2139 2136 2135 2123 2125 2117 2105 2095 2082 2071 2071 2079 2080 2089 2083 2068 2095 2105 2107 2098 2111 2101 2102 2109 2106 2106 2118 2117 2131 2144 2148 2154 2161 2165 2165 2158 2152 2143 2161 2169 2166 2160 2155 2151 2148 2143 2143 2134 2110 2104 2095 2087 2082 2076 2062 2042 2038 2028 2027 2025 2029 2029 2022 2016 2011 2000 1981 1959 1945 1922 1889 1874 1865 1852 1841 1828 1817 1795 1758 1728 1714 1673 1656 1652 1642 1623 1604
2342 2353 2351 2369 2382 2396 2418 2436 2451 2456 2479 2502 2519 2550 2579 2595 2599 2565 2556 2541 2532 2513 2499 2496 2490 2489 2485 2486 2468 2464 2470 2469 2471 2466 2464 2467 2459 2462 2450 2436 2429 2421 2409 2403 2397 2384 2363 2358 2341 2305 2290 2283 2270 2287 2298 2299 2299 2303 2315 2321 2319 2313 2305 2297 2293 2287 2285 2287 2285 2281 2278 2277 2285 2287 2289 2294 2278 2279 2277 2273 2269 2262 2258 2249 2249 2245 2253 2264 2274 2282 2289 2298 2281 2277 2279 2279 2281 2286 2288 2289 2293 2297 2293 2294 2287 2289 2293 2291 2277 2276 2268 2261 2266 2270 2264 2269 2267 2267 2253 2243 2254 2249 2243 2232 2231 2225 2223 2228 2225 2226 2220 2208 2214 2223 2229 2242 2237 2230 2231 2236 2243 2244 2247 2247 2246 2254 2260 2265 2259 2258 2255 2253 2249 2240 2237 2245 2255 2269 2275 2276 2272 2257 2252 2250 2256 2267 2272 2283 2287 2288 2297 2303 2318 2329 2342 2353 2356 2354 2355 2357 2355 2357 2357 2358 2361 2358 2354 2346 2341 2332 2329 2318 2303 2296 2319 2325 2341 2343 2339 2328 2311 2311 2299 2297 2300 2297 2288 2273 2275 2263 2244 2238 2229 2216 2208 2207 2199 2204 2189 2196 2198 2182 2171 2170 2153 2150 2142 2131 2135 2131 2126 2121 2106 2093 2092 2082 2065 2073 2081 2086 2077 2064 2077 2099 2095 2098 2099 2090 2096 2094 2096 2108 2106 2119 2130 2143 2150 2151 2152 2155 2164 2162 2150 2148 2163 2169 2170 2166 2159 2145 2141 2139 2146 2134 2131 2105 2093 2085 2071 2064 2051 2035 2025 2016 2012 2016 2013 2013 2011 2004 1998 1997 1984 1963 1949 1927 1896 1879 1866 1862 1845 1832 1821 1793 1754 1732 1709 1658 1637 1632 1623 1607 1595
2315 2333 2342 2362 2372 2390 2401 2419 2436 2449 2472 2493 2515 2542 2571 2580 2582 2570 2556 2541 2522 2520 2512 2500 2485 2487 2486 2472 2475 2467 2469 2463 2472 2472 2467 2458 2449 2439 2435 2421 2418 2415 2402 2397 2389 2386 2368 2358 2335 2324 2282 2277 2271 2286 2296 2289 2286 2292 2301 2305 2297 2293 2291 2287 2282 2280 2277 2276 2272 2274 2274 2270 2272 2277 2279 2278 2266 2269 2269 2266 2259 2258 2253 2232 2231 2240 2248 2259 2268 2277 2284 2279 2270 2271 2273 2271 2274 2277 2278 2283 2285 2287 2282 2289 2287 2288 2292 2283 2272 2267 2262 2258 2260 2263 2259 2256 2260 2257 2252 2236 2235 2236 2238 2232 2220 2214 2214 2219 2215 2217 2215 2198 2214 2222 2224 2227 2225 2221 2222 2233 2236 2239 2244 2243 2236 2237 2246 2247 2249 2253 2251 2252 2246 2236 2227 2234 2244 2258 2268 2268 2260 2257 2244 2247 2251 2262 2269 2275 2285 2290 2292 2306 2312 2326 2341 2350 2349 2344 2348 2350 2349 2350 2350 2353 2356 2353 2353 2349 2341 2332 2329 2320 2308 2301 2316 2320 2328 2337 2334 2327 2303 2298 2289 2284 2280 2281 2270 2257 2257 2254 2247 2230 2217 2212 2218 2206 2200 2204 2203 2217 2214 2202 2183 2173 2166 2158 2142 2133 2124 2123 2122 2110 2104 2097 2087 2079 2069 2064 2076 2072 2066 2066 2081 2086 2092 2101 2099 2082 2095 2099 2102 2102 2102 2118 2135 2136 2132 2137 2143 2157 2160 2152 2150 2156 2166 2161 2151 2152 2149 2141 2128 2130 2143 2141 2131 2097 2088 2077 2062 2052 2044 2034 2019 2008 2003 1998 1986 1984 1984 1981 1980 1975 1973 1965 1949 1935 1919 1886 1874 1863 1854 1839 1821 1787 1753 1737 1707 1668 1634 1607 1596 1580 1568
2293 2312 2323 2343 2360 2372 2389 2411 2425 2435 2455 2479 2513 2533 2560 2574 2562 2570 2544 2520 2522 2506 2498 2495 2487 2479 2475 2467 2464 2461 2466 2465 2464 2462 2460 2446 2443 2433 2430 2404 2411 2407 2401 2390 2384 2377 2365 2349 2335 2326 2288 2273 2266 2273 2279 2267 2268 2280 2287 2297 2292 2277 2278 2277 2274 2268 2269 2268 2266 2269 2266 2266 2261 2264 2266 2263 2266 2258 2258 2258 2252 2259 2243 2221 2227 2237 2245 2251 2262 2271 2272 2263 2259 2264 2265 2265 2267 2269 2270 2274 2276 2272 2269 2279 2283 2288 2286 2282 2265 2255 2254 2254 2256 2254 2259 2249 2246 2240 2239 2241 2236 2221 2225 2226 2213 2207 2199 2203 2203 2205 2209 2198 2212 2222 2218 2217 2216 2212 2213 2226 2234 2241 2240 2237 2235 2230 2231 2238 2241 2246 2246 2248 2242 2233 2223 2224 2235 2243 2258 2254 2252 2248 2239 2242 2252 2264 2277 2289 2298 2297 2300 2304 2309 2324 2338 2349 2347 2333 2341 2344 2342 2344 2345 2349 2349 2350 2347 2340 2336 2328 2329 2314 2296 2290 2307 2312 2311 2321 2322 2315 2316 2314 2307 2293 2277 2274 2277 2272 2257 2245 2240 2229 2232 2230 2225 2221 2222 2209 2203 2232 2233 2219 2187 2181 2172 2160 2150 2140 2122 2121 2108 2106 2098 2100 2083 2073 2077 2066 2079 2073 2065 2068 2073 2085 2097 2101 2083 2089 2101 2103 2105 2112 2117 2122 2125 2130 2140 2139 2149 2160 2152 2146 2161 2163 2162 2152 2146 2137 2132 2127 2118 2123 2135 2138 2125 2111 2081 2066 2053 2044 2033 2024 2011 1994 1988 1982 1967 1964 1963 1961 1959 1955 1950 1949 1943 1934 1919 1890 1878 1863 1848 1833 1818 1787 1750 1729 1695 1673 1638 1621 1595 1570 1549
2285 2299 2321 2331 2347 2356 2375 2387 2423 2438 2450 2470 2499 2526 2547 2556 2546 2558 2539 2518 2501 2492 2495 2485 2485 2490 2481 2469 2458 2463 2461 2461 2459 2463 2463 2457 2444 2429 2419 2408 2393 2399 2389 2381 2367 2361 2359 2355 2347 2326 2305 2278 2270 2252 2257 2248 2265 2273 2277 2282 2279 2264 2272 2271 2267 2265 2267 2259 2259 2260 2259 2255 2255 2259 2261 2255 2256 2258 2247 2251 2246 2245 2238 2217 2224 2229 2243 2247 2255 2261 2258 2251 2244 2244 2257 2257 2258 2260 2262 2265 2263 2261 2266 2272 2276 2282 2276 2272 2257 2248 2244 2247 2246 2247 2249 2252 2235 2221 2223 2237 2237 2217 2204 2212 2207 2203 2195 2196 2192 2192 2196 2188 2206 2215 2218 2205 2205 2204 2203 2219 2233 2244 2241 2234 2232 2227 2234 2235 2241 2248 2250 2241 2239 2234 2220 2215 2230 2241 2249 2245 2238 2235 2239 2243 2253 2264 2280 2290 2294 2294 2297 2303 2315 2326 2343 2349 2342 2327 2332 2334 2335 2333 2337 2339 2338 2340 2339 2326 2321 2320 2322 2312 2292 2277 2299 2305 2296 2311 2316 2306 2314 2322 2314 2299 2293 2291 2295 2280 2262 2257 2260 2256 2247 2238 2231 2239 2240 2225 2221 2232 2229 2217 2190 2181 2167 2157 2147 2137 2130 2131 2108 2092 2092 2091 2078 2072 2073 2067 2072 2068 2076 2086 2074 2078 2102 2096 2081 2089 2095 2090 2093 2098 2107 2116 2119 2134 2144 2144 2150 2153 2147 2143 2159 2165 2162 2149 2156 2150 2143 2140 2121 2115 2122 2130 2112 2104 2067 2052 2045 2039 2027 2013 1997 1982 1976 1974 1969 1954 1948 1948 1947 1943 1937 1930 1921 1914 1903 1893 1866 1851 1832 1813 1788 1764 1750 1723 1702 1666 1636 1618 1592 1572 1547
2269 2290 2310 2323 2332 2342 2356 2364 2409 2427 2442 2462 2491 2518 2538 2547 2533 2546 2525 2508 2494 2492 2480 2481 2477 2484 2477 2466 2454 2461 2447 2453 2452 2459 2461 2453 2441 2435 2427 2421 2403 2388 2382 2382 2371 2371 2364 2352 2340 2321 2305 2280 2265 2252 2251 2248 2257 2257 2265 2261 2261 2254 2267 2262 2260 2262 2259 2247 2250 2251 2252 2249 2248 2250 2250 2251 2249 2248 2247 2238 2237 2236 2228 2210 2219 2226 2237 2239 2247 2254 2250 2240 2234 2236 2251 2249 2251 2247 2248 2249 2251 2251 2259 2266 2269 2274 2276 2260 2248 2241 2228 2225 2230 2234 2243 2248 2236 2216 2209 2224 2214 2195 2189 2197 2194 2196 2185 2187 2186 2185 2176 2182 2199 2206 2208 2205 2195 2195 2199 2216 2232 2240 2240 2237 2230 2224 2224 2230 2240 2244 2245 2233 2231 2222 2208 2208 2221 2235 2243 2231 2217 2213 2225 2243 2251 2261 2280 2286 2290 2289 2297 2305 2321 2333 2347 2350 2337 2321 2325 2325 2325 2324 2325 2329 2329 2326 2331 2316 2303 2309 2318 2312 2287 2272 2289 2299 2293 2302 2291 2292 2301 2300 2304 2301 2311 2308 2296 2278 2266 2274 2272 2274 2252 2246 2239 2253 2249 2235 2242 2238 2229 2202 2194 2169 2159 2146 2134 2135 2140 2128 2107 2091 2078 2075 2059 2058 2052 2058 2065 2072 2077 2078 2070 2077 2096 2087 2079 2094 2095 2096 2107 2114 2118 2129 2134 2145 2143 2141 2138 2132 2141 2152 2155 2150 2148 2149 2151 2151 2139 2135 2122 2117 2110 2119 2112 2099 2067 2049 2042 2034 2017 2002 1984 1972 1967 1958 1958 1946 1942 1939 1935 1934 1926 1918 1914 1905 1894 1880 1849 1837 1821 1801 1778 1755 1733 1723 1688 1655 1634 1602 1585 1563 1546
2261 2278 2288 2301 2310 2325 2345 2363 2397 2417 2432 2455 2482 2509 2523 2533 2526 2525 2512 2500 2483 2477 2480 2473 2466 2471 2472 2455 2455 2461 2447 2451 2446 2452 2456 2454 2443 2442 2432 2428 2418 2401 2391 2384 2376 2378 2367 2352 2335 2324 2305 2278 2267 2247 2241 2236 2246 2253 2254 2245 2241 2247 2262 2257 2255 2255 2247 2242 2243 2243 2245 2246 2241 2244 2245 2245 2245 2242 2237 2238 2228 2222 2210 2202 2217 2224 2227 2234 2238 2241 2242 2234 2227 2232 2246 2240 2239 2241 2241 2241 2243 2243 2251 2257 2258 2264 2265 2260 2245 2240 2231 2215 2218 2228 2242 2243 2227 2211 2205 2213 2214 2199 2187 2182 2185 2193 2184 2172 2176 2175 2166 2175 2184 2189 2196 2188 2184 2188 2196 2214 2226 2234 2237 2235 2231 2222 2224 2233 2235 2236 2233 2226 2220 2206 2193 2211 2227 2239 2238 2216 2207 2219 2230 2244 2251 2259 2269 2279 2287 2292 2299 2309 2326 2335 2341 2343 2336 2315 2318 2320 2316 2316 2321 2324 2324 2313 2314 2303 2299 2303 2310 2303 2287 2262 2271 2275 2283 2291 2280 2282 2291 2299 2293 2302 2314 2309 2289 2275 2272 2282 2285 2281 2258 2262 2251 2260 2258 2255 2251 2234 2213 2199 2185 2161 2154 2153 2149 2152 2138 2122 2118 2103 2091 2073 2072 2066 2045 2047 2059 2057 2058 2063 2068 2076 2079 2076 2077 2087 2083 2096 2112 2125 2126 2131 2136 2139 2137 2127 2124 2137 2147 2151 2144 2141 2149 2159 2155 2146 2140 2131 2125 2116 2101 2104 2103 2093 2081 2049 2037 2020 2006 1995 1978 1963 1954 1947 1944 1942 1932 1927 1917 1912 1908 1906 1901 1891 1882 1872 1838 1818 1805 1789 1766 1747 1738 1712 1677 1644 1625 1589 1570 1554 1539
2253 2262 2281 2294 2305 2326 2343 2363 2377 2413 2434 2454 2470 2489 2513 2519 2521 2515 2498 2493 2472 2465 2468 2473 2458 2452 2459 2455 2452 2454 2446 2445 2447 2453 2455 2453 2442 2440 2425 2421 2417 2393 2384 2377 2370 2368 2368 2355 2340 2329 2312 2290 2259 2241 2228 2225 2227 2234 2237 2231 2229 2245 2256 2257 2249 2241 2237 2232 2232 2238 2237 2237 2235 2235 2239 2243 2239 2236 2231 2230 2217 2210 2202 2199 2215 2220 2221 2228 2224 2234 2234 2224 2220 2227 2233 2241 2235 2234 2234 2237 2241 2241 2240 2244 2246 2248 2257 2247 2245 2240 2232 2215 2214 2225 2232 2232 2213 2200 2194 2207 2211 2200 2189 2176 2176 2186 2184 2164 2165 2166 2158 2162 2170 2177 2181 2174 2184 2174 2196 2205 2214 2217 2218 2225 2225 2219 2225 2226 2233 2237 2228 2226 2210 2192 2189 2207 2223 2233 2227 2198 2210 2219 2233 2244 2249 2262 2271 2281 2289 2292 2299 2312 2326 2333 2341 2341 2333 2315 2316 2320 2321 2311 2319 2317 2312 2307 2296 2291 2295 2298 2304 2300 2279 2262 2253 2266 2277 2277 2270 2288 2297 2296 2282 2300 2302 2300 2292 2284 2282 2289 2285 2274 2269 2272 2264 2261 2259 2250 2241 2232 2221 2199 2172 2165 2168 2169 2163 2160 2147 2134 2129 2119 2101 2088 2082 2069 2050 2038 2048 2054 2053 2063 2063 2071 2084 2071 2070 2076 2086 2096 2112 2122 2127 2135 2132 2131 2122 2121 2126 2137 2142 2133 2133 2143 2152 2159 2153 2137 2134 2128 2122 2112 2098 2087 2087 2082 2075 2049 2037 2010 1993 1980 1970 1954 1941 1931 1930 1928 1915 1904 1895 1889 1890 1887 1883 1876 1864 1854 1842 1811 1789 1769 1751 1735 1720 1694 1677 1649 1628 1607 1567 1556 1539
2250 2261 2275 2296 2311 2331 2357 2375 2379 2428 2449 2457 2468 2485 2512 2517 2517 2506 2486 2480 2461 2452 2455 2460 2458 2461 2457 2451 2452 2447 2438 2440 2445 2448 2454 2453 2450 2435 2423 2419 2411 2401 2373 2364 2352 2353 2354 2346 2335 2327 2319 2295 2259 2236 2224 2221 2215 2218 2226 2220 2224 2239 2243 2238 2230 2217 2221 2219 2221 2220 2227 2221 2227 2223 2233 2234 2233 2232 2226 2223 2217 2203 2189 2194 2210 2209 2213 2213 2213 2227 2222 2210 2215 2222 2230 2237 2233 2226 2226 2232 2237 2238 2235 2235 2239 2240 2242 2236 2239 2240 2229 2209 2202 2214 2220 2218 2211 2194 2183 2200 2205 2199 2185 2171 2170 2174 2179 2173 2159 2151 2151 2162 2162 2167 2172 2174 2173 2174 2193 2198 2203 2205 2206 2212 2219 2217 2223 2225 2225 2221 2219 2224 2210 2187 2178 2198 2213 2210 2207 2203 2209 2221 2237 2247 2253 2262 2277 2286 2284 2286 2306 2316 2323 2333 2339 2336 2332 2314 2316 2319 2317 2304 2309 2310 2304 2299 2284 2285 2291 2292 2297 2305 2272 2252 2253 2266 2269 2261 2265 2276 2285 2281 2278 2297 2309 2298 2287 2282 2278 2281 2284 2287 2282 2263 2261 2258 2249 2232 2221 2216 2206 2191 2172 2166 2182 2181 2176 2165 2157 2151 2149 2137 2112 2104 2096 2062 2053 2047 2037 2045 2045 2056 2060 2070 2082 2083 2072 2085 2096 2107 2117 2113 2130 2139 2138 2134 2123 2113 2126 2136 2133 2122 2129 2141 2153 2156 2142 2123 2119 2116 2114 2111 2099 2089 2076 2072 2068 2056 2031 2010 1982 1965 1948 1941 1932 1921 1914 1910 1910 1885 1873 1864 1866 1863 1863 1863 1850 1837 1817 1779 1760 1740 1724 1716 1708 1692 1675 1649 1632 1609 1572 1561 1540
2250 2262 2277 2295 2317 2335 2362 2379 2389 2410 2449 2461 2472 2487 2504 2515 2510 2499 2493 2484 2454 2445 2446 2450 2455 2455 2446 2446 2450 2433 2430 2424 2438 2443 2443 2440 2438 2432 2413 2406 2395 2390 2372 2358 2348 2347 2345 2327 2317 2314 2312 2302 2285 2236 2223 2213 2204 2208 2209 2206 2215 2226 2227 2218 2213 2201 2205 2206 2204 2208 2217 2213 2213 2214 2223 2222 2220 2220 2225 2217 2208 2203 2176 2187 2195 2201 2209 2203 2207 2220 2216 2205 2212 2219 2225 2230 2224 2223 2219 2227 2231 2231 2228 2225 2227 2232 2235 2226 2225 2231 2219 2210 2195 2193 2202 2200 2197 2184 2178 2188 2187 2189 2184 2170 2159 2167 2172 2176 2163 2154 2145 2159 2162 2163 2170 2162 2162 2170 2186 2189 2195 2191 2188 2191 2201 2215 2221 2218 2218 2210 2215 2212 2198 2177 2167 2180 2198 2189 2179 2180 2208 2221 2233 2247 2255 2265 2277 2283 2286 2292 2302 2318 2327 2333 2333 2328 2327 2316 2311 2316 2313 2312 2305 2304 2304 2293 2279 2281 2285 2287 2292 2298 2279 2259 2256 2263 2258 2252 2263 2279 2280 2269 2258 2278 2292 2297 2285 2282 2278 2278 2282 2288 2282 2264 2254 2245 2240 2230 2219 2200 2188 2176 2168 2166 2186 2173 2175 2170 2159 2153 2154 2139 2125 2113 2101 2072 2067 2061 2048 2034 2046 2052 2057 2067 2069 2061 2077 2089 2102 2106 2109 2113 2127 2134 2128 2121 2130 2121 2118 2128 2120 2123 2136 2144 2144 2143 2133 2118 2115 2110 2103 2106 2095 2087 2073 2061 2067 2054 2015 1999 1983 1963 1946 1930 1918 1912 1901 1891 1892 1874 1861 1848 1846 1841 1835 1838 1831 1813 1792 1771 1736 1714 1696 1690 1686 1677 1666 1652 1632 1610 1578 1554 1540
2249 2262 2277 2290 2318 2341 2360 2383 2400 2421 2438 2456 2473 2492 2509 2522 2509 2499 2480 2468 2463 2446 2444 2451 2451 2455 2451 2443 2440 2430 2422 2434 2428 2438 2436 2425 2429 2423 2414 2407 2391 2381 2358 2351 2345 2335 2324 2307 2298 2301 2302 2294 2280 2241 2220 2207 2198 2188 2194 2200 2204 2212 2212 2201 2197 2191 2191 2190 2189 2200 2206 2201 2201 2201 2209 2208 2205 2206 2213 2208 2202 2188 2176 2178 2189 2197 2197 2190 2199 2210 2206 2197 2204 2212 2217 2222 2217 2217 2213 2220 2223 2226 2225 2216 2220 2223 2225 2216 2210 2215 2219 2196 2186 2177 2184 2179 2180 2179 2175 2174 2171 2175 2182 2178 2163 2163 2171 2173 2157 2150 2143 2147 2153 2157 2164 2154 2147 2168 2177 2189 2180 2172 2173 2186 2200 2211 2213 2207 2208 2203 2199 2200 2183 2164 2149 2157 2168 2163 2168 2181 2215 2230 2243 2250 2257 2263 2277 2283 2288 2297 2306 2322 2326 2326 2321 2321 2321 2311 2300 2305 2304 2306 2301 2297 2295 2290 2278 2281 2284 2284 2288 2280 2280 2256 2251 2263 2246 2257 2269 2278 2278 2269 2257 2256 2270 2287 2278 2270 2274 2269 2274 2277 2272 2264 2245 2241 2238 2231 2219 2196 2191 2197 2191 2193 2186 2161 2164 2154 2147 2146 2148 2142 2131 2122 2113 2096 2074 2060 2049 2035 2040 2042 2051 2058 2059 2051 2079 2083 2087 2092 2105 2115 2127 2122 2115 2116 2132 2133 2118 2110 2116 2127 2140 2139 2129 2134 2135 2125 2106 2103 2095 2093 2085 2077 2070 2053 2058 2043 2026 1999 1983 1965 1953 1940 1919 1903 1889 1872 1872 1859 1849 1833 1819 1812 1801 1801 1793 1778 1763 1746 1715 1696 1679 1670 1665 1657 1650 1641 1625 1610 1584 1551 1545
2255 2266 2278 2300 2318 2354 2369 2381 2398 2416 2422 2454 2470 2495 2510 2511 2499 2495 2481 2464 2451 2442 2443 2447 2440 2453 2451 2428 2434 2428 2426 2434 2422 2424 2423 2416 2419 2417 2406 2401 2379 2377 2365 2352 2335 2323 2315 2304 2299 2288 2287 2280 2268 2261 2220 2202 2192 2182 2182 2191 2190 2188 2189 2182 2183 2184 2180 2172 2167 2192 2198 2193 2190 2190 2198 2193 2189 2194 2199 2200 2193 2179 2166 2178 2180 2179 2184 2181 2188 2198 2199 2189 2195 2200 2205 2206 2209 2208 2208 2213 2218 2219 2219 2208 2211 2212 2216 2206 2202 2201 2201 2196 2175 2164 2171 2164 2168 2169 2162 2156 2158 2166 2173 2172 2162 2155 2169 2175 2170 2145 2140 2148 2149 2154 2164 2156 2143 2155 2161 2175 2157 2152 2168 2185 2196 2204 2199 2194 2194 2191 2182 2185 2174 2154 2137 2141 2146 2158 2174 2187 2204 2238 2251 2257 2263 2271 2278 2282 2288 2294 2305 2310 2317 2315 2314 2312 2314 2311 2294 2297 2299 2300 2289 2288 2289 2283 2271 2273 2278 2284 2283 2269 2260 2246 2239 2249 2246 2257 2264 2264 2272 2264 2253 2242 2258 2269 2268 2261 2267 2265 2265 2262 2262 2261 2246 2228 2224 2214 2206 2209 2210 2214 2208 2204 2183 2149 2150 2141 2141 2138 2137 2137 2125 2113 2112 2103 2073 2058 2044 2027 2036 2036 2040 2046 2045 2049 2059 2071 2076 2092 2107 2113 2117 2122 2106 2114 2122 2130 2133 2123 2112 2128 2133 2124 2128 2138 2132 2128 2104 2099 2097 2086 2084 2069 2055 2045 2041 2028 2018 1994 1979 1965 1945 1930 1910 1901 1882 1862 1863 1851 1830 1812 1798 1789 1784 1768 1756 1745 1731 1723 1714 1684 1667 1650 1639 1630 1620 1627 1613 1598 1568 1556 1548
2260 2272 2287 2299 2325 2350 2359 2380 2393 2413 2422 2455 2469 2488 2508 2514 2504 2490 2485 2465 2456 2445 2438 2441 2443 2449 2445 2428 2427 2428 2425 2421 2416 2415 2419 2413 2407 2399 2386 2378 2377 2376 2360 2341 2328 2319 2309 2299 2298 2288 2283 2265 2254 2253 2218 2202 2190 2181 2168 2172 2176 2173 2178 2179 2181 2177 2170 2157 2163 2181 2190 2182 2170 2171 2181 2175 2173 2185 2191 2190 2182 2171 2162 2172 2170 2172 2171 2175 2182 2190 2194 2184 2184 2193 2197 2197 2199 2200 2206 2213 2213 2212 2213 2198 2200 2205 2207 2207 2196 2195 2192 2182 2175 2148 2156 2152 2154 2157 2152 2145 2145 2152 2158 2159 2150 2154 2163 2170 2162 2131 2128 2138 2149 2153 2158 2149 2132 2138 2147 2156 2157 2151 2167 2181 2194 2195 2184 2180 2189 2178 2170 2170 2165 2146 2126 2127 2146 2164 2176 2189 2205 2241 2252 2259 2266 2270 2274 2280 2288 2284 2294 2302 2313 2307 2307 2304 2306 2306 2288 2290 2293 2291 2286 2282 2285 2268 2263 2268 2273 2278 2276 2266 2244 2243 2234 2240 2246 2257 2251 2260 2264 2259 2249 2238 2251 2256 2255 2255 2258 2261 2259 2256 2254 2252 2239 2233 2231 2220 2219 2223 2224 2219 2207 2197 2182 2159 2136 2130 2125 2123 2120 2121 2116 2101 2100 2103 2096 2055 2045 2027 2029 2032 2036 2039 2040 2051 2060 2077 2083 2090 2091 2100 2107 2107 2114 2120 2124 2125 2135 2134 2118 2112 2113 2118 2126 2135 2128 2121 2116 2104 2093 2086 2079 2076 2053 2036 2026 2019 2012 1994 1975 1959 1945 1934 1931 1919 1897 1869 1851 1838 1818 1805 1790 1771 1760 1752 1736 1720 1709 1701 1689 1671 1656 1635 1625 1614 1606 1601 1595 1578 1568 1562 1549
2262 2280 2292 2308 2327 2344 2363 2377 2395 2407 2420 2448 2464 2481 2503 2506 2500 2481 2470 2460 2456 2432 2435 2434 2431 2435 2432 2421 2415 2416 2424 2426 2426 2413 2413 2412 2397 2390 2382 2372 2365 2365 2360 2348 2331 2324 2309 2299 2285 2285 2282 2263 2252 2246 2217 2209 2190 2180 2169 2163 2161 2163 2168 2173 2170 2169 2153 2132 2149 2162 2165 2166 2153 2149 2154 2157 2157 2174 2185 2179 2172 2154 2157 2168 2170 2163 2163 2170 2175 2178 2186 2189 2177 2179 2186 2188 2189 2195 2205 2209 2203 2202 2199 2187 2195 2200 2200 2194 2186 2183 2183 2178 2166 2148 2145 2139 2139 2138 2137 2131 2132 2138 2145 2143 2148 2153 2159 2160 2158 2144 2121 2132 2143 2149 2148 2143 2127 2122 2132 2140 2135 2151 2166 2178 2187 2186 2170 2168 2178 2168 2151 2156 2156 2135 2118 2125 2149 2165 2178 2195 2207 2222 2245 2253 2260 2260 2263 2272 2282 2284 2288 2302 2312 2307 2298 2293 2296 2298 2283 2277 2281 2280 2276 2268 2269 2257 2254 2260 2263 2267 2263 2253 2239 2228 2225 2236 2247 2252 2251 2257 2256 2252 2240 2231 2234 2249 2243 2246 2251 2265 2270 2260 2252 2249 2251 2248 2243 2238 2231 2223 2214 2208 2195 2182 2169 2160 2136 2140 2137 2127 2116 2110 2103 2093 2093 2091 2095 2072 2059 2045 2031 2023 2036 2038 2038 2051 2063 2066 2071 2075 2083 2093 2096 2105 2114 2118 2116 2120 2133 2134 2130 2112 2101 2116 2125 2132 2135 2125 2108 2102 2098 2095 2074 2074 2062 2048 2040 2031 2016 1999 1970 1960 1945 1934 1941 1920 1900 1870 1862 1849 1831 1796 1776 1757 1747 1734 1719 1707 1698 1685 1666 1645 1639 1636 1620 1603 1592 1587 1582 1574 1568 1562 1556
2262 2289 2300 2318 2334 2352 2365 2380 2393 2400 2416 2429 2470 2491 2501 2497 2485 2474 2453 2444 2435 2428 2417 2431 2428 2424 2424 2424 2415 2407 2416 2422 2419 2411 2411 2407 2400 2394 2384 2375 2363 2353 2344 2343 2322 2317 2309 2298 2280 2277 2274 2258 2243 2236 2228 2209 2194 2180 2170 2160 2151 2151 2156 2158 2147 2152 2133 2116 2138 2141 2139 2133 2125 2121 2126 2130 2135 2152 2166 2165 2161 2141 2155 2161 2159 2163 2145 2161 2168 2174 2178 2187 2177 2167 2169 2178 2177 2179 2204 2197 2187 2187 2182 2180 2189 2192 2186 2180 2174 2175 2178 2174 2166 2140 2128 2125 2124 2120 2121 2119 2123 2129 2133 2128 2138 2139 2140 2136 2135 2127 2114 2129 2134 2133 2134 2138 2130 2113 2123 2125 2122 2154 2166 2173 2179 2170 2152 2155 2163 2158 2140 2141 2137 2122 2113 2127 2147 2163 2183 2199 2209 2217 2237 2247 2251 2252 2252 2261 2271 2278 2288 2302 2305 2315 2306 2290 2285 2283 2275 2270 2269 2269 2270 2271 2251 2251 2249 2250 2252 2250 2246 2239 2230 2214 2209 2225 2240 2243 2243 2241 2244 2237 2235 2214 2225 2237 2242 2244 2256 2261 2260 2250 2251 2262 2263 2266 2247 2231 2223 2213 2198 2191 2183 2185 2182 2174 2156 2140 2145 2136 2126 2116 2118 2101 2089 2080 2080 2086 2072 2053 2034 2029 2024 2027 2033 2040 2050 2059 2061 2061 2072 2086 2095 2107 2115 2118 2105 2109 2117 2128 2129 2121 2106 2117 2128 2139 2141 2131 2109 2102 2094 2095 2078 2068 2066 2053 2041 2031 2024 2013 1986 1975 1962 1951 1944 1923 1903 1889 1879 1868 1853 1815 1794 1785 1772 1756 1743 1733 1723 1707 1698 1675 1660 1652 1639 1624 1612 1604 1597 1582 1571 1563 1559
2277 2280 2315 2327 2343 2357 2371 2385 2390 2402 2417 2430 2461 2477 2490 2487 2480 2468 2447 2426 2423 2420 2420 2418 2418 2415 2412 2406 2405 2407 2404 2409 2413 2405 2406 2401 2395 2388 2377 2371 2366 2348 2335 2334 2321 2315 2303 2291 2277 2269 2260 2243 2237 2231 2223 2202 2194 2183 2166 2151 2134 2144 2142 2143 2131 2127 2106 2107 2116 2118 2111 2111 2100 2097 2098 2096 2095 2128 2136 2137 2130 2130 2145 2145 2140 2144 2145 2149 2163 2168 2175 2181 2174 2168 2155 2165 2171 2180 2195 2187 2181 2177 2174 2173 2183 2182 2172 2167 2164 2170 2170 2164 2159 2138 2128 2108 2104 2105 2114 2116 2118 2119 2120 2115 2119 2119 2113 2111 2112 2111 2112 2119 2119 2116 2118 2127 2126 2109 2114 2110 2120 2149 2163 2160 2167 2161 2143 2135 2144 2142 2126 2125 2125 2113 2110 2131 2150 2165 2181 2194 2196 2201 2210 2237 2242 2245 2248 2256 2270 2281 2289 2302 2305 2312 2303 2292 2278 2273 2269 2267 2258 2259 2264 2263 2240 2237 2237 2237 2241 2236 2230 2227 2215 2201 2191 2211 2224 2225 2234 2241 2230 2229 2221 2206 2215 2219 2238 2240 2249 2251 2249 2241 2243 2251 2255 2265 2246 2231 2223 2217 2209 2196 2193 2203 2198 2181 2169 2153 2145 2146 2138 2130 2127 2113 2103 2097 2077 2071 2060 2048 2043 2041 2029 2021 2031 2039 2053 2060 2052 2062 2070 2080 2089 2099 2107 2107 2105 2102 2109 2118 2118 2109 2104 2116 2128 2135 2135 2132 2117 2103 2087 2094 2092 2072 2063 2056 2048 2041 2035 2025 2008 1981 1969 1957 1944 1931 1919 1906 1899 1885 1870 1850 1829 1810 1791 1772 1767 1759 1742 1727 1717 1700 1683 1669 1665 1650 1638 1625 1617 1588 1575 1582 1579
